ply
format ascii 1.0
comment PCL generated
element vertex 667
property float x
property float y
property float z
property float intensity
property float nx
property float ny
property float nz
property float curvature
element camera 0
property float view_px
property float view_py
property float view_pz
property float x_axisx
property float x_axisy
property float x_axisz
property float y_axisx
property float y_axisy
property float y_axisz
property float z_axisx
property float z_axisy
property float z_axisz
property float focal
property float scalex
property float scaley
property float centerx
property float centery
property int viewportx
property int viewporty
property float k1
property float k2
end_header
-0.039358001 0.083631001 0.043501999 1 -0.1658731 -0.031877961 0.98563176 0
-0.086161003 0.108386 0.018245 1 -0.97669512 -0.013710272 0.21419294 0
-0.086723 0.099917002 0.0035540001 1 -0.91556931 0.21068287 -0.3425574 0
-0.022414001 0.083283998 0.055590998 1 -0.54049778 0.035297509 0.84060472 0
-0.016992999 0.082556002 0.057523999 1 0.062067144 -0.073610194 0.99535388 0
-0.012406 0.085222997 0.057268001 1 -0.071278766 0.089096688 0.99346924 0
-0.0074439999 0.116934 0.039283998 1 -0.10207816 0.52246213 0.8465302 0
-0.002145 0.111433 0.042436998 1 0.009068775 0.3677496 0.92988062 0
-0.075718001 0.125227 0.053087 1 0.035512269 0.086308368 0.99563533 0
-0.077056997 0.131935 0.052462 1 0.06794434 0.29175878 0.95407563 0
-0.061121002 0.155697 0.022516999 1 0.13018157 0.98664504 0.097899653 0
-0.037539002 0.127441 0.015321 1 0.15758635 0.9404276 0.30126825 0
-0.002052 0.100935 0.045626 1 0.009999847 0.94473159 0.32769209 0
-0.064992003 0.084550999 0.044119999 1 -0.27249399 -0.20828921 0.93934155 0
-0.057861999 0.083944 0.044186 1 -0.11505218 -0.12583993 0.98535645 0
-0.045681 0.084987998 0.044160001 1 0.33562189 -0.16164558 0.92802399 0
-0.035023 0.082888 0.042913001 1 0.33845156 -0.12014443 0.93328226 0
-0.029982001 0.085401997 0.043745 1 -0.74528879 -0.064438269 0.66362065 0
-0.088891998 0.099209003 0.0095699998 1 -0.96404028 0.1669016 -0.20680942 0
-0.019135 0.083475001 0.057216998 1 -0.29651737 0.029494382 0.9545719 0
-0.083489999 0.107247 0.00075800001 1 -0.85737997 0.29385778 -0.42254838 0
-0.070113003 0.117904 0.052714001 1 0.26042247 -0.24661517 0.93346721 0
-0.070831001 0.122544 0.053275 1 0.23583715 0.13953578 0.96172267 0
-0.053617001 0.085346997 0.045332 1 -0.066765316 -0.022061398 0.9975248 0
-0.049001001 0.086222 0.045352001 1 0.19742839 -0.03554593 0.97967267 0
-0.036745001 0.086084001 0.043613002 1 0.10877919 0.0026082247 0.99406254 0
-0.010873 0.088826999 0.056665 1 -0.04468343 0.15261282 0.98727542 0
-0.0038449999 0.084788002 0.057197999 1 0.0086846799 0.11626395 0.99318039 0
-0.04902 0.117713 0.031580999 1 0.49670944 0.33026209 0.80262488 0
-0.042913999 0.11836 0.030645 1 -0.066367544 0.72184753 0.6888625 0
-0.059498999 0.088845 0.045109 1 -0.00060283788 -0.13034308 0.99146879 0
-0.056931 0.088101 0.044693001 1 -0.016632717 -0.040053796 0.99905914 0
-0.016682999 0.087266997 0.056740999 1 -0.12590459 0.17796095 0.97594982 0
-0.008498 0.08399 0.057604998 1 -0.0080139786 0.10624157 0.99430799 0
0.0035079999 0.086340003 0.057048 1 0.12336504 0.24088062 0.96268249 0
-0.076566003 0.11674 0.051488999 1 -0.42160052 -0.33458066 0.84279823 0
0.017868999 0.090898998 0.048712999 1 0.37779871 0.26923257 0.88587916 0
-0.040341999 0.116696 0.03246 1 0.0083538666 0.64055151 0.76786965 0
-0.085777998 0.091701001 -4.7000001e-05 1 -0.94621676 0.0149132 -0.32318968 0
-0.050372001 0.088845 0.045187999 1 -0.0084575126 0.15769272 0.98745197 0
-0.044434 0.087655 0.043478001 1 0.35652387 0.13276465 0.92480505 0
-0.042056002 0.086712003 0.042535 1 0.076649733 0.024511106 0.99675667 0
-0.033057999 0.086185999 0.04256 1 -0.055784229 -0.21213895 0.97564602 0
-0.029242 0.090452999 0.044236999 1 -0.45680338 0.055075344 0.88786113 0
-0.0068959999 0.084432997 0.057169002 1 0.069798574 0.099270895 0.99260938 0
-0.0066209999 0.090415001 0.056880001 1 0.01773241 0.15675333 0.98747861 0
-0.001244 0.089093 0.056552 1 0.098027393 0.2310074 0.96800119 0
0.0094079999 0.090328 0.054214001 1 0.23617655 0.42531565 0.87368608 0
-0.086227 0.114668 0.0022100001 1 -0.67306936 -0.43653458 -0.59700525 0
-0.089495003 0.095632002 0.014235 1 -0.99940133 0.013687408 -0.031773537 0
-0.052935999 0.090914004 0.044569001 1 0.016625322 0.15078732 0.98842645 0
-0.036745001 0.088886999 0.043311998 1 -0.02748321 -0.14326611 0.98930258 0
-0.013626 0.089787997 0.056674 1 -0.052938186 0.18531778 0.98125172 0
0.023336999 0.123534 0.024874 1 0.47403049 0.77016377 0.42678198 0
-0.073697001 0.15613 0.01436 1 -0.099829987 0.99476451 0.021853374 0
-0.065591998 0.091041997 0.044092 1 -0.31719851 0.18425176 0.93028837 0
-0.058997001 0.092031002 0.045334999 1 -0.015396886 0.13519411 0.99069947 0
-0.033239 0.088574 0.043697 1 -0.14262128 -0.22698797 0.96339804 0
-0.031835001 0.090723 0.044172999 1 -0.052907385 -0.15692969 0.98619163 0
-0.020021999 0.088032 0.055589002 1 -0.42366031 0.32801291 0.84434557 0
-0.011214 0.092366003 0.056104999 1 -0.078778222 0.39617771 0.91478801 0
0.028675999 0.119596 0.024545999 1 0.66860396 0.64489251 0.37024635 0
-0.062615 0.091127001 0.045090999 1 -0.18643041 0.057756472 0.98076904 0
-0.015241 0.091821998 0.055817001 1 -0.25655007 0.41714954 0.87187636 0
-0.005622 0.093235001 0.055893999 1 0.04341957 0.41111156 0.91055042 0
0.004799 0.091655001 0.054715 1 0.22355101 0.39064109 0.8929863 0
-0.068282001 0.092377 0.042389002 1 -0.31561625 0.13905597 0.93864256 0
-0.055624001 0.092187002 0.045054998 1 0.13025731 0.13374037 0.98241878 0
-0.051901001 0.095458001 0.043938 1 -0.03343951 0.17486835 0.98402375 0
-0.048808999 0.091084003 0.044457 1 0.19328614 0.11264631 0.9746545 0
-0.045412 0.091002002 0.043253001 1 0.3147434 0.070016801 0.94659084 0
-0.044514999 0.094860002 0.042971998 1 0.27692789 0.086919226 0.95695144 0
-0.03943 0.089598 0.043178 1 -0.25150254 0.056799479 0.96618855 0
-0.035642002 0.092616998 0.044238001 1 -0.14364474 -0.0457757 0.98857003 0
-0.000122 0.093200997 0.055397999 1 0.16296738 0.36811793 0.9153856 0
0.0095100002 0.095484003 0.050911002 1 0.25583893 0.58380735 0.77052921 0
0.021442 0.091355003 0.048043001 1 0.28966567 0.20856528 0.93412757 0
-0.073018998 0.156021 0.022419 1 -0.085479721 0.98955429 0.11608437 0
-0.069369003 0.095242999 0.042128999 1 -0.31297383 0.20215178 0.92799896 0
-0.060116999 0.095553003 0.044183999 1 -0.11793697 0.30379349 0.94541013 0
-0.029242 0.094290003 0.044821002 1 -0.0612792 0.022820558 0.99785972 0
-0.026560999 0.093290001 0.044975001 1 -0.48183402 0.40263915 0.77827871 0
-0.014394 0.094587997 0.053994 1 -0.2485954 0.67563742 0.69405645 0
-0.0088689998 0.095399998 0.054446001 1 -0.079423755 0.63554168 0.76797056 0
-0.001219 0.096202001 0.053816002 1 0.079653151 0.66032678 0.74674219 0
0.0040480001 0.095817 0.052937001 1 0.25514954 0.55524457 0.79158205 0
-0.0046020001 0.124285 0.033472002 1 -0.077940904 0.77630007 0.62552661 0
-0.078436002 0.13928001 0.048328999 1 -0.18156949 0.59848779 0.780285 0
-0.056623999 0.096322 0.043667998 1 0.051239256 0.24807493 0.96738482 0
-0.036299001 0.095696002 0.043579999 1 -0.22849739 0.18863946 0.9550938 0
-0.02438 0.095866002 0.044434998 1 -0.35534877 0.32502449 0.87640536 0
0.010916 0.12633599 0.029857 1 0.20505232 0.8055051 0.55598122 0
-0.0058619999 0.097350001 0.052744001 1 -0.061581392 0.8089751 0.58460855 0
0.016973 0.097107001 0.047440998 1 0.2757532 0.26829821 0.92302561 0
-0.067231998 0.099174 0.041593999 1 -0.22620086 0.24631961 0.94242233 0
-0.054993998 0.099641003 0.042955 1 0.019592827 0.27650848 0.96081179 0
-0.048618 0.096453004 0.044183001 1 0.11548069 0.21034935 0.97078186 0
-0.094244003 0.122074 0.023568001 1 -0.98023331 -0.13237105 0.14703925 0
0.013243 0.096738003 0.048749998 1 0.20713909 0.47238609 0.85670578 0
0.020639 0.096602 0.046971001 1 0.22988392 0.25435495 0.93939173 0
0.0073429998 0.120982 0.035973001 1 0.067355976 0.59604639 0.80011988 0
-0.020111 0.125045 0.023588 1 -0.3285135 0.87697089 0.35071492 0
-0.064028002 0.097838998 0.042564999 1 -0.23422357 0.26469597 0.93545461 0
-0.051996 0.099707998 0.042716999 1 0.013863347 0.36235279 0.93193787 0
-0.043990999 0.099425003 0.042383 1 0.15127167 0.16387318 0.97481406 0
-0.039737999 0.102154 0.040573999 1 -0.01494645 0.38626984 0.9222647 0
-0.035930999 0.099809997 0.042335998 1 -0.18963712 0.41164559 0.89139527 0
-0.030867999 0.096914999 0.044651002 1 -0.10691348 0.28128159 0.95365095 0
-0.028341999 0.097782999 0.043761 1 0.0050408831 0.22175506 0.97508937 0
-0.025622999 0.098713003 0.044211 1 -0.17629737 0.22662753 0.95789313 0
-0.085236996 0.110774 0.024537999 1 -0.71095932 -0.64418411 0.28207022 0
0.0071939998 0.098858997 0.048420001 1 0.1221531 0.64544058 0.75397944 0
0.0096509997 0.101088 0.047373001 1 -0.10438298 0.53762293 0.83669937 0
0.013487 0.100764 0.047454 1 0.16604237 0.37565729 0.91176283 0
0.00080899999 0.116333 0.040167999 1 0.081521094 0.50046146 0.86191225 0
-0.026303999 0.12518901 0.017393 1 -0.23879755 0.90470827 0.35281542 0
-0.047589999 0.100812 0.042349 1 0.034885991 0.33239508 0.94249481 0
-0.041460998 0.098545 0.041779 1 0.027497483 0.16633625 0.98568565 0
-0.033581998 0.103839 0.040738001 1 -0.19050317 0.47554052 0.85881883 0
-0.02287 0.102847 0.043545 1 -0.1122327 0.35141498 0.92946833 0
-0.022361999 0.098208003 0.044766001 1 -0.1591281 0.3437824 0.92546856 0
-0.018871 0.098972999 0.044489 1 -0.12263191 0.4971382 0.85896158 0
-0.071433999 0.077574 0.038061 1 -0.48033172 -0.416255 0.77201885 0
-0.073000997 0.118267 0.053034998 1 -0.073754802 -0.28906363 0.9544645 0
-0.078932002 0.150931 0.035151999 1 -0.31742793 0.83048981 0.45774025 0
-0.074114002 0.099443004 0.038338002 1 -0.5680238 0.22664383 0.79118997 0
-0.070456997 0.100988 0.039794002 1 -0.35955313 0.32532713 0.87457633 0
-0.059059002 0.100413 0.042725001 1 -0.084683694 0.31233147 0.94619119 0
-0.049187001 0.10452 0.040300999 1 -0.097556785 0.3993687 0.91158509 0
-0.029151 0.101974 0.042633001 1 -0.15366952 0.44303599 0.88323539 0
-0.0116 0.101078 0.044192001 1 -0.13567252 0.70770079 0.69336319 0
0.0051449998 0.101639 0.045423001 1 -0.13199688 0.69621545 0.70559257 0
-0.051495999 0.104967 0.040346999 1 0.080835834 0.42545247 0.90136331 0
-0.020218 0.102144 0.043701001 1 0.025361069 0.2613073 0.96492249 0
0.0042519998 0.105237 0.042564001 1 0.045114357 0.40682459 0.91239166 0
0.016833 0.103375 0.045286998 1 0.20835063 0.59948355 0.77279329 0
-0.072141998 0.105367 0.037523001 1 -0.28959504 0.060474973 0.95523691 0
-0.064985 0.103716 0.040647998 1 -0.21728508 0.3635526 0.90587902 0
-0.060651999 0.104672 0.040906001 1 -0.052058663 0.45461091 0.88916749 0
-0.055309001 0.103654 0.041517001 1 0.022669669 0.42651635 0.90419567 0
-0.044243 0.104317 0.041340001 1 0.13298355 0.34264225 0.93000627 0
-0.015513 0.104361 0.042918999 1 -0.071305558 0.24301289 0.9673987 0
-0.0076319999 0.103045 0.043710999 1 -0.027539732 0.11117531 0.99341917 0
-0.0078050001 0.105166 0.043825001 1 -0.10159753 0.017253121 0.99467599 0
0.0097160004 0.105235 0.043604001 1 -0.15285265 0.69648975 0.70109779 0
0.030300001 0.115536 0.028685 1 0.64798349 0.59981775 0.46939969 0
-0.047497001 0.106357 0.040166002 1 -0.13583033 0.40366122 0.90476942 0
-0.038979001 0.10683 0.038247999 1 0.18719488 0.40251291 0.89607006 0
-0.025869001 0.104267 0.042208001 1 -0.2337478 0.44823125 0.86281556 0
-0.018058 0.105039 0.042803001 1 -0.05282459 0.31539896 0.94748777 0
-0.01518 0.108077 0.042350002 1 -0.17174894 0.35510582 0.91891354 0
-0.0038980001 0.105662 0.044047002 1 0.0079380851 0.18814179 0.98210979 0
2.7e-05 0.104467 0.043776002 1 0.10958379 0.13874285 0.98424685 0
0.011978 0.104036 0.045396 1 0.0049824608 0.66015989 0.75110847 0
0.015005 0.107269 0.041811999 1 0.089282639 0.60133135 0.79399574 0
-0.036226001 0.106342 0.038644999 1 -0.14624722 0.49214572 0.85813999 0
-0.021127 0.109323 0.040715002 1 -0.20165998 0.46105552 0.86415344 0
-0.01282 0.104571 0.043466002 1 -0.11048865 0.16241609 0.98051679 0
0.005285 0.109437 0.041675001 1 0.26639342 0.19293518 0.94435722 0
0.0089400001 0.107106 0.041243002 1 0.0061562243 0.49793586 0.86719209 0
-0.054200999 0.114517 0.034844 1 0.16964115 0.41485524 0.89393342 0
-0.069381997 0.108658 0.037508 1 0.14513396 -0.30799517 0.94025266 0
-0.067690998 0.107341 0.038017999 1 -0.25330207 0.36124519 0.89740741 0
-0.063781999 0.110373 0.037579998 1 -0.0059872661 0.2890839 0.95728505 0
-0.050749 0.109287 0.038298 1 -0.0076694908 0.52719259 0.84971124 0
-0.0093940003 0.107428 0.043455001 1 -0.06813658 0.20773831 0.9758085 0
0.001176 0.109325 0.042663001 1 0.17380902 0.19227587 0.96582627 0
0.0098019997 0.11004 0.039944999 1 0.27591231 0.24010725 0.93070984 0
0.020130999 0.107328 0.040323999 1 0.30655041 0.51575154 0.80001706 0
-0.054997001 0.107742 0.039425001 1 0.017528804 0.48534474 0.87414712 0
-0.045967001 0.109051 0.038754001 1 0.016665628 0.57995236 0.81448001 0
-0.042325001 0.107373 0.039455999 1 0.21752726 0.42878515 0.8768267 0
-0.032161001 0.108965 0.038102999 1 -0.16989824 0.54250401 0.82269311 0
-0.03077 0.115973 0.032859001 1 -0.055822775 0.67872339 0.73226935 0
-0.011609 0.109837 0.042475 1 -0.16535118 0.37219563 0.91330683 0
-0.049796999 0.113421 0.035117999 1 0.023386117 0.65197873 0.75787652 0
-0.057982001 0.109432 0.037997998 1 0.00084101915 0.50911015 0.86070096 0
-0.041491002 0.112248 0.035873 1 0.059336398 0.60671335 0.79270297 0
-0.02493 0.115928 0.034095 1 -0.25477776 0.65474331 0.71161753 0
-0.020881999 0.114095 0.037873 1 -0.2796312 0.57934862 0.76561189 0
-0.0075520002 0.111838 0.042040002 1 -0.073747441 0.39907363 0.9139483 0
0.003767 0.112405 0.041494999 1 0.18211128 0.33947524 0.92281747 0
-0.059195999 0.113208 0.036235001 1 0.2782785 -0.063760392 0.95838177 0
0.016688 0.036977001 0.043001 1 0.44560942 -0.49981812 0.74270731 0
-0.052276999 0.117751 0.033769 1 0.62148404 -0.21583626 0.75310844 0
0.026579 0.117024 0.030867999 1 0.5365724 0.60346419 0.5898484 0
-0.023574 0.037037 0.054145001 1 0.16980568 -0.21560982 0.96160203 0
-0.0073779998 0.038988002 0.048928998 1 0.2887176 -0.0099035045 0.95736307 0
0.013235 0.038453002 0.044500999 1 0.2223812 -0.065845191 0.97273374 0
0.019486999 0.040809002 0.042640999 1 0.42630613 -0.13159704 0.89495546 0
-0.063954003 0.146947 0.038484 1 0.62881362 0.18369067 0.75554693 0
-0.049578998 0.036097001 0.045954999 1 0.1965833 -0.44364813 0.87437493 0
-0.043324001 0.036286 0.044041999 1 0.30012122 -0.081951238 0.95037431 0
-0.001734 0.039476998 0.047263 1 0.26043805 0.031065039 0.96499068 0
-0.056802001 0.145147 0.031739999 1 0.78998101 0.0035427241 0.61312103 0
-0.056464002 0.037682999 0.04682 1 -0.15357888 -0.030483954 0.98766601 0
-0.050965 0.038311999 0.046286002 1 0.20967136 0.1098959 0.97157645 0
-0.050980002 0.134866 0.027585 1 0.77459371 0.48996344 0.39992553 0
-0.025646999 0.038860999 0.054161001 1 -0.14256157 0.041178685 0.98892891 0
-0.022542 0.040615998 0.053986002 1 0.18669124 0.0957276 0.97774363 0
-0.017618001 0.038911 0.052402999 1 0.31216627 -0.020752165 0.94980079 0
0.023779999 0.095223002 0.046347 1 0.44265249 0.25420031 0.85990751 0
0.014744 0.042716999 0.044509999 1 0.18790384 0.032553222 0.98164779 0
0.021691 0.040162001 0.040846001 1 0.68537569 -0.39991358 0.60854679 0
0.020319 0.10042 0.045761 1 0.33987221 0.41315934 0.84485871 0
-0.014981 0.042571001 0.051405001 1 0.31153166 0.14167993 0.93961418 0
-0.057335 0.123401 0.040231001 1 0.57656068 -0.031598415 0.81644315 0
-0.054173 0.123379 0.037576001 1 0.71559149 0.078739047 0.69406694 0
0.022624999 0.043621998 0.040904999 1 0.63445008 -0.089701794 0.76774126 0
0.028811 0.043352 0.032157999 1 0.67296803 -0.57023877 0.47110704 0
0.0092230001 0.044124998 0.045056999 1 0.18620527 -0.40522894 0.89505148 0
0.015048 0.045756001 0.043793999 1 0.35423937 -0.056511022 0.93344575 0
-0.082190998 0.075609997 0.016542999 1 -0.81157917 -0.56596106 0.14500813 0
-0.066298999 0.123371 0.050616 1 0.71390313 0.23967169 0.65795118 0
-0.01551 0.045283001 0.050652999 1 0.27303496 0.50432295 0.81921315 0
0.018928001 0.04425 0.04301 1 0.40673408 0.093071088 0.90879321 0
0.025822001 0.046326999 0.038277 1 0.54529458 -0.12295829 0.82917738 0
0.027269 0.044548001 0.036153 1 0.72469032 -0.40384358 0.55833173 0
0.023855999 0.106166 0.039377999 1 0.40241751 0.4408201 0.80233264 0
0.021632999 0.048126999 0.040693998 1 0.4721286 -0.1084287 0.87483585 0
0.043784998 0.048804 0.031342998 1 0.38498017 -0.51183856 0.76799184 0
0.048075002 0.048969999 0.028165 1 0.54765278 -0.56917655 0.61328179 0
0.052662998 0.047674 0.021201 1 0.63894582 -0.68851453 0.34306839 0
-0.052722 0.044723 0.044142999 1 0.092135616 0.66365248 0.74234515 0
0.01063 0.046712 0.046472002 1 0.44717112 -0.54213905 0.71142334 0
0.016743001 0.048439 0.043678999 1 0.46351749 -0.49333984 0.73604846 0
0.028827 0.092133 0.043919999 1 0.53089583 0.19285566 0.8252008 0
-0.059937 0.127262 0.040771 1 0.50768524 0.35748729 0.78387403 0
0.026997 0.051318001 0.038752001 1 0.48371133 -0.3595171 0.79797924 0
0.047736 0.052751001 0.030796999 1 0.5126164 -0.33718282 0.78964055 0
0.051704001 0.048857 0.024148 1 0.60608983 -0.61394644 0.50569254 0
-0.067504004 0.114241 0.048036002 1 0.60276544 -0.67672193 0.42275432 0
0.041319001 0.099496998 0.024276 1 0.89515698 0.32079068 0.30949527 0
0.014055 0.052524 0.048594002 1 0.45527983 -0.47496879 0.75307691 0
0.019421 0.051321 0.044799 1 0.4470349 -0.59381419 0.66898763 0
0.023677999 0.051474001 0.041053001 1 0.52942729 -0.51225626 0.67623985 0
0.034258001 0.051931001 0.032758001 1 0.66327995 -0.41704562 0.62139571 0
0.055957001 0.053146999 0.023197999 1 0.76178139 -0.4139958 0.49829361 0
-0.046989001 0.126008 0.026985999 1 0.84759122 0.25630444 0.46464732 0
0.019205 0.055167001 0.047722001 1 0.44622096 -0.34083903 0.82747543 0
0.021886 0.053927999 0.045102 1 0.60091746 -0.43125775 0.67298949 0
0.031286001 0.052864 0.036913998 1 0.62678027 -0.38512591 0.67736584 0
0.046661001 0.054719001 0.031977002 1 0.36144161 -0.075639307 0.92932165 0
0.051824 0.053277001 0.027927 1 0.63929868 -0.39089653 0.66219115 0
-0.068700999 0.14463501 0.043042 1 0.36229467 0.51060456 0.77975994 0
-0.05607 0.15000699 0.029867999 1 0.85159218 0.12172516 0.50987613 0
-0.068369001 0.122893 0.052437998 1 0.463092 0.22150181 0.85818565 0
0.011745 0.056678001 0.051913999 1 0.46092597 -0.21942119 0.85988468 0
-0.059374999 0.119982 0.040548 1 0.59883702 -0.31976005 0.73426676 0
0.059092 0.057957001 0.020269999 1 0.91788161 -0.18852067 0.34921804 0
0.014905 0.05635 0.049523 1 0.43254954 -0.21278314 0.87614173 0
0.024286 0.054958999 0.043086998 1 0.56901419 -0.42915139 0.70146412 0
0.028953001 0.056125 0.040389001 1 0.53835666 -0.36027461 0.76182312 0
-0.049508002 0.12949499 0.030259 1 0.78892195 0.31556436 0.52727723 0
0.040824998 0.095169999 0.028658001 1 0.87739891 0.23919156 0.4158828 0
0.017774999 0.058244001 0.048865002 1 0.34472689 -0.088951565 0.93447894 0
0.033574 0.058515001 0.038311001 1 0.64769036 -0.35891432 0.67206979 0
0.036385 0.056995999 0.033601001 1 0.73035073 -0.33691174 0.59420395 0
-0.064204998 0.122439 0.048007999 1 0.84569532 0.042272948 0.5319891 0
-0.065425001 0.140113 0.041308999 1 0.83767897 0.076105669 0.54083443 0
0.050801001 0.057308 0.030001 1 0.47940791 -0.083255492 0.87363416 0
0.056671999 0.056970999 0.024292 1 0.78495812 -0.26635075 0.5593729 0
-0.069761001 0.13442899 0.048264999 1 0.6357888 0.28312472 0.71806204 0
0.019537 0.060004 0.048576001 1 0.44380823 -0.10510096 0.8899371 0
0.027014 0.059953 0.043453999 1 0.57877195 -0.14409158 0.8026585 0
0.057679001 0.061393 0.024202 1 0.83853841 -0.10873073 0.53388292 0
-0.056917001 0.12623499 0.039427001 1 0.59894061 0.26823702 0.7545324 0
0.023468999 0.116563 0.033537 1 0.42219615 0.52076209 0.74199545 0
-0.058299001 0.138855 0.032937001 1 0.56846565 0.23106074 0.7895934 0
0.0064599998 0.060297001 0.054779999 1 0.32300663 -0.32153136 0.89010352 0
0.010406 0.059161998 0.052483998 1 0.3988573 -0.22231962 0.88965547 0
0.023184 0.058653999 0.045871001 1 0.58402187 -0.24278729 0.77457905 0
0.033039998 0.061774001 0.039781 1 0.55738312 -0.16538168 0.81361723 0
-0.064347997 0.12628099 0.04665 1 0.77307785 0.34382081 0.53304589 0
-0.057030998 0.11562 0.036495 1 0.45911953 -0.41637692 0.78475446 0
0.054451998 0.058343001 0.027652999 1 0.69666409 -0.17457724 0.69583184 0
-0.056033 0.137311 0.031971 1 0.57973236 0.41054133 0.70382261 0
-0.067676 0.14150301 0.043868002 1 0.67016196 0.25928971 0.69545084 0
0.0099910004 0.062734999 0.054009002 1 0.44255275 -0.22003716 0.86932772 0
0.014522 0.061383002 0.050501 1 0.47838643 -0.16359477 0.86277646 0
0.030052001 0.062169999 0.041545998 1 0.54894131 -0.13527206 0.82484233 0
0.037519 0.061062999 0.034366 1 0.8053053 -0.24071032 0.54179507 0
0.053943999 0.061392002 0.028269 1 0.56261158 0.071633309 0.82361209 0
0.059119999 0.063129 0.021562001 1 0.93090343 -0.010483346 0.3651149 0
0.039218999 0.106693 0.02045 1 0.8649109 0.44401523 0.23405039 0
0.021902001 0.060876001 0.047281999 1 0.5511685 -0.0047571245 0.83438039 0
0.035342 0.061629999 0.037606001 1 0.73065972 -0.18877657 0.65612483 0
-0.062146001 0.135998 0.036701001 1 0.55692238 0.40817824 0.72334504 0
0.056821 0.063690998 0.025286 1 0.76311046 0.11342078 0.6362375 0
0.011212 0.066583999 0.053982001 1 0.37914783 -0.11922286 0.91762352 0
0.01292 0.064204 0.052441001 1 0.5128721 -0.24620014 0.82240367 0
0.020127 0.063850999 0.04792 1 0.53451592 -0.11838608 0.83682579 0
0.035971999 0.066670001 0.037781 1 0.71873349 -0.013300197 0.69515842 0
0.039907001 0.064360999 0.031686999 1 0.86448079 -0.10941201 0.49061388 0
-0.066702001 0.13210601 0.045481 1 0.78466421 0.27118742 0.55745804 0
0.033045001 0.107663 0.031916 1 0.70814842 0.40248507 0.58011347 0
0.024672 0.063694 0.045205001 1 0.54975986 0.0012350263 0.8353219 0
0.026109001 0.068007998 0.043903001 1 0.54399484 0.031560875 0.83849478 0
0.033364002 0.067055002 0.039728999 1 0.57422024 -0.03770788 0.81783205 0
0.042916 0.066707999 0.026994999 1 0.57231355 0.24054416 0.78396159 0
0.054715 0.064696997 0.02698 1 0.53717023 0.33802119 0.7727806 0
0.023387 0.070076004 0.047013 1 0.69275749 -0.25403988 0.674945 0
0.038102999 0.065678 0.035133 1 0.81534809 -0.11173616 0.56808668 0
0.010145 0.122217 0.034719002 1 0.19646508 0.58453262 0.78722495 0
0.058391999 0.066740997 0.021979 1 0.84689438 0.29565582 0.44199264 0
0.034125999 0.097053997 0.037590001 1 0.67880493 0.37137929 0.63348347 0
-0.058260001 0.140995 0.032441001 1 0.70971215 -0.032562111 0.70373887 0
-0.066817001 0.119515 0.051490001 1 0.67715359 -0.11671565 0.72652632 0
-0.068089999 0.116471 0.051151 1 0.46602529 -0.55268252 0.69091409 0
0.016567999 0.066270001 0.051010001 1 0.48994511 -0.20341496 0.84768873 0
0.029363001 0.066509999 0.042289 1 0.52755064 0.011578513 0.84944469 0
0.056412999 0.067659996 0.023969 1 0.65472263 0.4030861 0.63942152 0
-0.061296001 0.1452 0.037138 1 0.63363528 -0.0049576429 0.77361608 0
0.0083870003 0.113362 0.039793 1 0.28450188 0.28407121 0.91562122 0
0.011807 0.070920996 0.05424 1 0.41864735 -0.099565662 0.90267438 0
0.029742001 0.070647001 0.041653998 1 0.51258159 -0.097665571 0.85306597 0
0.036293998 0.071221001 0.037115 1 0.74929279 -0.03163949 0.66148263 0
0.039900001 0.070294999 0.03272 1 0.84020889 -0.033776302 0.54120982 0
-0.062762998 0.13778 0.036679 1 0.77597457 0.036416862 0.62971199 0
-0.092269003 0.114752 0.017016999 1 -0.80845892 -0.58406836 0.0725151 0
-0.00095000002 0.101411 0.044289999 1 -0.044836216 0.54108357 0.83977276 0
-0.063712999 0.112742 0.038006999 1 0.52909821 -0.58071381 0.61872977 0
-0.061096001 0.117017 0.039654002 1 0.58250779 -0.51751781 0.62678546 0
0.020992 0.069334999 0.049004 1 0.53981435 -0.22110394 0.81222749 0
0.025659001 0.070550002 0.044539999 1 0.62270427 -0.17947166 0.7615965 0
0.032979 0.073500998 0.040486999 1 0.6194365 -0.11083251 0.77718377 0
0.042156 0.069718003 0.028317999 1 0.87793392 -0.020557579 0.4783403 0
-0.055516999 0.12956101 0.036598001 1 0.61508542 0.36218414 0.70035177 0
-0.0062549999 0.101217 0.044321999 1 -0.028990442 0.81754744 0.57513112 0
0.026110999 0.10089 0.041733 1 0.47940218 0.4759275 0.73733747 0
-0.0656 0.113295 0.042319 1 0.57502753 -0.75516152 0.31476095 0
0.028814999 0.096712999 0.042257998 1 0.50095457 0.34783882 0.79249769 0
0.015263 0.071571998 0.052717 1 0.40914536 -0.14582379 0.90074164 0
0.028982 0.074088 0.043446999 1 0.55891347 -0.27427116 0.78255421 0
0.044872999 0.075516999 0.023155 1 0.93342835 -0.0050927089 0.35872757 0
-0.052368999 0.14682899 0.018935001 1 0.97652233 0.046449959 0.21034883 0
0.017177001 0.073066004 0.051826999 1 0.44533843 -0.20451094 0.87169319 0
0.022688 0.075149 0.049311999 1 0.59772956 -0.17142873 0.7831549 0
0.035471998 0.073077001 0.038481999 1 0.71065325 -0.056762077 0.70124882 0
-0.089481004 0.1384 0.025061 1 -0.97444624 -0.169796 0.14705063 0
-0.053217001 0.13222 0.032977998 1 0.68344301 0.40322414 0.60853589 0
-0.090549 0.13511901 0.021681 1 -0.95070237 0.29892486 0.082516439 0
-0.063367002 0.130371 0.041669998 1 0.71727955 0.37924105 0.58453935 0
0.014074 0.076651998 0.054221001 1 0.33279249 -0.098231629 0.93786979 0
0.01811 0.075806998 0.052487999 1 0.47725588 -0.1605719 0.86396956 0
0.042210001 0.078860998 0.029186999 1 0.87378508 -0.014678201 0.48609069 0
-0.052115999 0.141799 0.020509999 1 0.9149822 0.29699692 0.27313071 0
0.029062999 0.111496 0.033806 1 0.57765663 0.492428 0.65102041 0
-0.054731 0.142672 0.02898 1 0.82423556 0.14268512 0.547975 0
0.025904 0.075535998 0.046417002 1 0.64573663 -0.25361365 0.72021121 0
0.031298999 0.075906999 0.042699002 1 0.56212175 -0.20836833 0.80037606 0
0.038446002 0.075649001 0.035050999 1 0.82044828 -0.023504341 0.57123733 0
0.046351999 0.074079998 0.018354001 1 0.9603942 0.16334975 0.22574304 0
-0.047657002 0.130775 0.025524 1 0.85638124 0.3491731 0.38038051 0
-0.064286999 0.134636 0.039946001 1 0.80955714 0.2437779 0.53403145 0
-0.061129 0.13178299 0.038915999 1 0.49260387 0.48781615 0.72067803 0
-0.047844 0.122151 0.028833 1 0.79740185 0.12254821 0.59087414 0
-0.049536999 0.124913 0.031778 1 0.83620864 0.095346265 0.54005945 0
-0.071134999 0.13817701 0.047853999 1 0.46638018 0.35605738 0.80976093 0
0.010114 0.076467998 0.055257 1 0.29145512 0.035284832 0.95593357 0
0.017897001 0.079516999 0.052760001 1 0.4076145 0.13023232 0.90381962 0
0.021740999 0.080251001 0.050425 1 0.50697511 0.077583954 0.85846198 0
0.025272001 0.078725003 0.048027001 1 0.62411463 -0.019635124 0.78108609 0
0.030885 0.078998998 0.043389 1 0.65552133 -0.067879036 0.75211984 0
-0.062442001 0.140848 0.036966 1 0.7285015 -0.11145346 0.67591697 0
0.020656999 0.104168 0.043005001 1 0.38537341 0.58635426 0.71251386 0
-0.063602999 0.115715 0.042571999 1 0.76511854 -0.51558083 0.38570738 0
0.014424 0.080086 0.053755999 1 0.27110136 0.20847712 0.93970275 0
0.028779 0.082552999 0.044527002 1 0.63907415 0.085905962 0.76433259 0
0.04445 0.081846997 0.024553001 1 0.94329458 0.038781885 0.32968387 0
0.045542002 0.083338 0.019701 1 0.97872019 0.067243174 0.19386882 0
-0.049665999 0.120638 0.032163002 1 0.76294142 -0.052547205 0.64432842 0
-0.058203001 0.13270999 0.036919001 1 0.48838478 0.4597646 0.74168503 0
-0.054726001 0.120713 0.037450999 1 0.64516217 -0.24254553 0.72452563 0
0.013189 0.084210999 0.053066 1 0.40839916 0.11320645 0.90575629 0
0.020152999 0.118497 0.034271002 1 0.34699878 0.51681495 0.78262007 0
-0.055860002 0.117743 0.037253 1 0.56762624 -0.3927196 0.72358257 0
0.018045001 0.083622999 0.051286001 1 0.38322037 0.26764041 0.88403106 0
0.028734 0.103601 0.038035002 1 0.49638444 0.45333323 0.74033195 0
0.024412001 0.098017 0.044686999 1 0.52250063 0.4145647 0.74506992 0
0.020925 0.086310998 0.049433 1 0.33875838 0.23944895 0.90989399 0
0.030445 0.084959999 0.043010999 1 0.53261185 0.053382456 0.84467453 0
0.03303 0.083782002 0.041637 1 0.62532103 -0.031672962 0.7797246 0
0.036975 0.079875998 0.037198 1 0.7401582 -0.034270328 0.67155886 0
-0.077721 0.113559 0.048156001 1 -0.36796361 -0.62682259 0.68680143 0
0.02925 0.106519 0.036589999 1 0.55129212 0.39557528 0.73457277 0
-0.053078 0.137547 0.028266 1 0.84175777 0.33587688 0.42264706 0
-0.062991001 0.119995 0.045235999 1 0.83079809 -0.24213803 0.50114244 0
-0.065398 0.11752 0.048735999 1 0.79667914 -0.39914712 0.45385447 0
0.033374 0.112279 0.027788 1 0.72508377 0.4760226 0.4976505 0
0.038414001 0.08749 0.035186 1 0.83810228 0.048500691 0.54335284 0
0.039292 0.10126 0.027550999 1 0.8284511 0.32875621 0.45341828 0
0.010936 0.086026996 0.054733001 1 0.45897669 -0.041396867 0.88748336 0
0.024109 0.084492996 0.048292 1 0.54151738 0.12666926 0.831092 0
0.036757998 0.099195004 0.032838002 1 0.75656784 0.35121605 0.55159074 0
-0.051941998 0.12566 0.034588002 1 0.72852588 0.20497556 0.65363216 0
0.0076410002 0.086427003 0.056118 1 0.29890537 0.17442217 0.93820703 0
0.016771 0.088644996 0.050523002 1 0.54035962 0.17962569 0.82203776 0
0.034405001 0.086933002 0.040573999 1 0.77433252 -0.0194114 0.6324811 0
0.036144 0.084439002 0.037937 1 0.7735545 -0.02128797 0.63337213 0
0.024766 0.110811 0.036727998 1 0.36599389 0.46703973 0.80493629 0
0.012534 0.089593999 0.053394999 1 0.49511501 0.18722625 0.84841466 0
0.025873 0.088482 0.046654999 1 0.54575306 0.12460804 0.82862926 0
0.032756001 0.088969 0.042215001 1 0.58471406 0.10669869 0.80419207 0
-0.092595004 0.119438 0.026803 1 -0.93338245 -0.31536019 0.17130436 0
-0.092499003 0.121315 0.029255999 1 -0.98524195 -0.083154351 0.1496117 0
-0.092906997 0.12307 0.036522999 1 -0.98562509 0.16893744 -0.0018551965 0
0.028423 0.088010997 0.044234 1 0.64369154 0.045179766 0.76395023 0
0.035252001 0.090837002 0.039184 1 0.77217525 0.21244222 0.59884363 0
0.015760999 0.093203999 0.049938999 1 0.5275352 0.33725479 0.77972162 0
0.038786002 0.094953999 0.03252 1 0.82174867 0.22997221 0.52138472 0
-0.061510999 0.123736 0.043063 1 0.74947369 0.14853759 0.64515561 0
-0.068144999 0.127487 0.050149001 1 0.58347344 0.35552934 0.73017645 0
0.015137 0.115715 0.037032001 1 0.21318738 0.46015924 0.86186111 0
0.030169001 0.100487 0.039404999 1 0.57463104 0.42497993 0.69942212 0
-0.087425999 0.095469996 0.0040310002 1 -0.94075596 -0.044100661 -0.33620438 0
-0.060010001 0.142845 0.03545 1 0.75579751 -0.16277611 0.63425082 0
-0.058603 0.14637201 0.033808999 1 0.796206 -0.012806375 0.60488999 0
0.032412 0.093736 0.040890001 1 0.61113566 0.30610117 0.72994196 0
0.044326998 0.090818003 0.022097999 1 0.96094924 0.11947957 0.24960223 0
0.038336001 0.038830999 0.003094 1 0.39778286 -0.89708388 -0.19237781 0
0.022193 0.036775 -0.0020920001 1 0.34045833 -0.86722225 -0.36333677 0
0.023682 0.039763 0.037149001 1 0.72007281 -0.60841882 0.33364919 0
0.046693001 0.042465001 0.0065649999 1 0.53550047 -0.83506668 -0.12610644 0
-0.090254001 0.113663 0.037719999 1 -0.68240368 -0.72949165 0.046552029 0
-0.090594001 0.113731 0.010277 1 -0.78322846 -0.57995194 -0.22407331 0
0.043292999 0.041864 0.0020630001 1 0.46951255 -0.8493408 -0.24120143 0
-0.081269003 0.108794 0.029441001 1 -0.77564609 -0.47448865 0.41621348 0
0.049575999 0.043816 0.014583 1 0.55923516 -0.82861751 0.025476206 0
0.052988 0.047747999 0.0050420002 1 0.67276204 -0.72460932 -0.1494408 0
0.052802 0.04654 0.010428 1 0.6539526 -0.75342202 -0.068566032 0
-0.053831998 0.149817 0.025067 1 0.94374865 0.17223322 0.28226608 0
0.054113999 0.047773 0.017484 1 0.6613481 -0.74159867 0.11247244 0
0.056731001 0.050515998 0.010627 1 0.81162786 -0.57766968 -0.086936213 0
-0.083818004 0.111091 0.028524 1 -0.59463161 -0.7827211 0.18374114 0
-0.082762003 0.111623 0.044220999 1 -0.25496656 -0.83524293 0.48719731 0
-0.052166 0.15013701 0.017449001 1 0.94195759 0.27129266 0.19777802 0
-0.051493 0.137964 0.023662001 1 0.8318662 0.45489463 0.31791431 0
0.056524999 0.050126001 0.015564 1 0.76190972 -0.64679873 0.033836503 0
0.05652 0.051180001 0.019941 1 0.78471339 -0.54340655 0.29821849 0
0.056908 0.051578 0.0072539998 1 0.83250403 -0.53946197 -0.12616564 0
-0.068796001 0.035117999 -0.0052069998 1 -0.8103295 -0.012802034 -0.58583468 0
0.058825999 0.055504002 0.018648 1 0.92936832 -0.30993646 0.20053387 0
-0.053342 0.144012 0.024261 1 0.95484018 0.1228341 0.2705403 0
0.058177002 0.052820999 0.015182 1 0.90352482 -0.42797175 0.021978434 0
0.059797999 0.056839999 0.013343 1 0.96269077 -0.26962593 0.02298579 0
-0.077040002 0.071966998 0.026404999 1 -0.72592306 -0.60402083 0.32892942 0
0.059239 0.056363001 0.0094529996 1 0.92350209 -0.37348428 -0.087483048 0
-0.085910998 0.109688 0.0076580001 1 -0.90432638 -0.33671501 -0.26232937 0
0.060594998 0.061677001 0.015592 1 0.98322719 -0.11091325 0.14478479 0
-0.088195004 0.103146 0.017509 1 -0.93501019 0.30712008 0.17729418 0
0.060779002 0.061647002 0.010464 1 0.98798478 -0.15433896 -0.0080982652 0
-0.090558 0.11276 0.016140999 1 -0.68099809 -0.7322731 -0.0042069298 0
-0.088468999 0.111243 0.012679 1 -0.67925227 -0.73123932 -0.062492751 0
-0.093575999 0.124746 0.026213 1 -0.96275604 0.043148663 0.26690641 0
-0.093189999 0.120199 0.037914 1 -0.99109793 -0.13257229 0.012221771 0
-0.081739001 0.076861002 0.023313999 1 -0.79047006 -0.56822008 0.22865471 0
0.060093999 0.065692998 0.018533001 1 0.96251291 0.10303185 0.2509048 0
-0.087056004 0.105628 0.0097650001 1 -0.95553583 0.25669375 -0.14511955 0
0.060729001 0.065807 0.013975 1 0.99405849 0.046794586 0.098275594 0
-0.091821998 0.127473 0.036458999 1 -0.96628433 0.25325894 0.046416111 0
-0.050492998 0.141599 0.016292 1 0.87930548 0.39835456 0.26102808 0
0.059886999 0.068512999 0.016171999 1 0.89181715 0.38152757 0.24310265 0
-0.062226001 0.060265001 0.020448999 1 -0.26951918 -0.90774119 0.32150495 0
-0.062001999 0.036435001 0.043919001 1 -0.63165158 -0.31327754 0.70913565 0
0.058375001 0.071185999 0.013073 1 0.68349922 0.72510421 0.08397954 0
-0.089578003 0.120783 0.0035230001 1 -0.90822703 -0.062443327 -0.41379273 0
-0.048434 0.13755 0.013245 1 0.88877261 0.42929766 0.16058287 0
-0.089313 0.13653 0.030459 1 -0.9966113 0.076275319 -0.030789392 0
-0.092019998 0.116115 0.035843 1 -0.91763526 -0.39498976 -0.043915432 0
-0.071305998 0.073899001 0.035969999 1 -0.49150157 -0.53269243 0.68895936 0
-0.086396001 0.104794 0.0059819999 1 -0.92038625 0.23136953 -0.31520984 0
-0.054910999 0.146623 0.028439 1 0.90852267 0.083432265 0.40942103 0
-0.090821996 0.122769 0.0060999999 1 -0.89378953 0.014552789 -0.4482505 0
-0.093039997 0.120264 0.011217 1 -0.95434576 -0.047614776 -0.29488465 0
0.044636 0.092794001 0.017832 1 0.98474127 0.11937788 0.12662382 0
0.043423001 0.091859996 0.024537999 1 0.91125107 0.18707132 0.36691377 0
-0.085612997 0.096276999 -0.000665 1 -0.91947365 0.09071967 -0.38254166 0
-0.092736997 0.120731 0.032692999 1 -0.99832422 -0.016325708 -0.055517249 0
-0.091044001 0.14199901 0.02173 1 -0.9751218 -0.18480745 0.1224076 0
0.041065 0.090461001 0.029889001 1 0.87218612 0.13945079 0.46887618 0
-0.072916001 0.065057002 0.018795 1 -0.67026013 -0.71509635 0.19846565 0
-0.090949997 0.138954 0.017371001 1 -0.98904532 -0.12631576 -0.076378584 0
-0.085270002 0.102678 0.001394 1 -0.89543998 0.2266264 -0.38318101 0
0.046280999 0.078702003 0.014786 1 0.98734188 0.10614455 0.11785286 0
-0.075268999 0.152329 0.034373999 1 -0.14185794 0.87530249 0.46230057 0
-0.016272999 0.128445 0.016683999 1 -0.28548363 0.94191253 0.1769177 0
-0.062116001 0.15600801 0.018034 1 0.11547745 0.99236959 0.043214176 0
-0.056010999 0.153817 0.025369 1 0.43377173 0.88382155 0.17521866 0
-0.079039998 0.15537401 0.015142 1 -0.19480546 0.9805603 0.023501107 0
-0.072506003 0.154595 0.029588999 1 -0.084376559 0.95540929 0.28297302 0
-0.0075349999 0.100213 0.047488999 1 -0.11119249 0.89994889 0.42157808 0
-0.059576001 0.154724 0.026373001 1 0.23458895 0.94791389 0.21546991 0
-0.077382997 0.153466 0.030895 1 -0.21774104 0.92156988 0.32139972 0
-0.081496999 0.15473101 0.019696999 1 -0.27740908 0.95990378 0.040361226 0
-0.043465 0.124511 0.022519 1 0.28166661 0.77795929 0.56164336 0
-0.060052998 0.152803 0.032887999 1 0.3217316 0.79231054 0.51839453 0
-0.023459001 0.12615401 0.016613999 1 -0.31877524 0.91182631 0.25875676 0
0.013906 0.12790801 0.025110001 1 0.33574364 0.83651966 0.43302557 0
-0.086368002 0.109065 0.011981 1 -0.97681803 -0.21124633 -0.034663487 0
-0.031358998 0.12141 0.025970999 1 0.13073383 0.85667282 0.49901929 0
-0.049105 0.136669 0.019314 1 0.84336728 0.48031527 0.24089178 0
-0.037606001 0.124226 0.024313999 1 0.010095269 0.88490075 0.4656702 0
0.0036230001 0.130768 0.021168999 1 0.018595295 0.96781778 0.25096381 0
-0.092675 0.117019 0.01189 1 -0.9372741 -0.25260246 -0.24022755 0
-0.065739997 0.155653 0.026017999 1 0.042774595 0.98075145 0.19051774 0
-0.086562 0.142492 0.0084330002 1 -0.85722399 -0.078435846 -0.50893497 0
-0.044286001 0.126066 0.020795001 1 0.79472363 0.46259987 0.39295766 0
-0.070221998 0.151435 0.036719002 1 0.010156 0.81253171 0.58282852 0
-0.088129997 0.097540997 0.0056790002 1 -0.94246125 0.095800981 -0.32029527 0
-0.088399 0.13899 0.010641 1 -0.92231011 0.23531581 -0.30654594 0
-0.0065859999 0.126417 0.030226 1 -0.15614201 0.8318336 0.53260922 0
-0.088745996 0.13625599 0.0071479999 1 -0.89720994 0.40367371 -0.17905843 0
-0.093176 0.11821 0.023362 1 -0.88330567 -0.42772833 0.19188428 0
-0.0089889998 0.12952299 0.022027001 1 -0.2279774 0.93018758 0.28771037 0
-0.088826001 0.090483002 0.021205001 1 -0.94819337 -0.18765485 0.25634933 0
-0.043046001 0.12785099 0.016842 1 0.47946849 0.76487398 0.43020666 0
-0.088630997 0.094880998 0.0079340003 1 -0.97749448 -0.029503699 -0.20888732 0
-0.091715001 0.1171 0.030809 1 -0.89490396 -0.4426825 -0.056383878 0
-0.069541 0.15308499 0.033865999 1 -0.032261442 0.90725172 0.41934896 0
-0.040081002 0.126284 0.019607 1 0.023488646 0.91097426 0.41179377 0
-0.085270002 0.105518 0.023290999 1 -0.88036597 0.3187345 0.35123223 0
-0.086538002 0.151548 0.025875 1 -0.46529537 0.83458203 0.29491171 0
-0.089408003 0.143528 0.030925 1 -0.95941061 0.16275042 0.23031172 0
-0.030771 0.125641 0.016595 1 0.14586693 0.91461551 0.37709576 0
-0.054453999 0.152977 0.022505 1 0.84358376 0.49832001 0.20010871 0
-0.001554 0.127547 0.029232999 1 -0.019032557 0.83237088 0.5538922 0
-0.089318998 0.099546999 0.013418 1 -0.97300738 0.22309244 -0.05904641 0
-0.028596001 0.119012 0.029888 1 -0.22385177 0.7663489 0.60216254 0
-0.092240997 0.118168 0.041202001 1 -0.88012642 -0.30624247 0.36275747 0
0.0024089999 0.100168 0.046937998 1 -0.0002860669 0.89884192 0.43827301 0
-0.056628 0.152706 0.029629 1 0.68894303 0.60698825 0.3961347 0
-0.057264999 0.155062 0.019322 1 0.30825713 0.94668603 0.093611702 0
-0.036451999 0.121999 0.027671 1 0.15600991 0.78485453 0.59972018 0
0.051537 0.073496997 0.012699 1 -0.020204794 0.99455923 0.10219547 0
-0.091757998 0.143346 0.017790999 1 -0.9992792 -0.028911259 -0.024599165 0
-0.086824998 0.152808 0.015521 1 -0.4058224 0.91286391 -0.044583805 0
-0.072567001 0.147532 0.041714001 1 0.038833354 0.73398817 0.67805105 0
0.05844 0.070201002 0.01778 1 0.74115819 0.60139877 0.29833564 0
0.056848001 0.072016999 0.017139001 1 0.5489763 0.80392224 0.2287665 0
0.054919001 0.073161997 0.015224 1 0.2363314 0.96857351 0.077542685 0
0.047447 0.073691003 0.01243 1 0.73936993 0.64465362 0.19430336 0
0.021747001 0.121185 0.030879 1 0.45930675 0.7100929 0.53367168 0
-0.075259998 0.149386 0.039175998 1 -0.1248443 0.80477804 0.58029848 0
0.016830999 0.124871 0.028426001 1 0.35265118 0.80353081 0.47955748 0
0.054016002 0.072884001 0.018678 1 0.15574448 0.95015323 0.27009729 0
0.050523002 0.073398001 0.016167 1 -0.052630272 0.9883526 0.14279096 0
-0.090759002 0.142234 0.026008001 1 -0.97506136 -0.15116149 0.16249765 0
-0.046548001 0.13320801 0.016890001 1 0.8425191 0.49893284 0.20304579 0
0.0086780004 0.12894601 0.026156999 1 0.11821121 0.89442992 0.43130183 0
0.0024920001 0.12983599 0.024847001 1 -0.0038253155 0.93400711 0.35723391 0
0.057344999 0.069482997 0.021153999 1 0.62886453 0.61720973 0.47284403 0
-0.085330002 0.15339901 0.020377999 1 -0.3778421 0.91663283 0.13045935 0
-0.047766 0.13302 0.022874 1 0.82926041 0.49268484 0.26379696 0
0.048207 0.072699003 0.016995 1 0.13626394 0.93379951 0.33083323 0
-0.027383 0.123243 0.021659 1 -0.032143399 0.92150861 0.38702554 0
0.0030799999 0.098306999 0.050535999 1 0.1535096 0.7822637 0.603737 0
0.054359 0.071466997 0.021381 1 0.29110235 0.78871572 0.54146743 0
0.045161001 0.071029998 0.022531001 1 0.85905552 0.22577572 0.45940062 0
-0.093281001 0.126911 0.013505 1 -0.97200185 0.14881839 -0.18183888 0
-0.087405004 0.10594 0.013646 1 -0.95050621 0.31055558 -0.0096542435 0
-0.022852 0.090635002 0.052280001 1 -0.61821955 0.4757255 0.62569159 0
-0.062098999 0.15406699 0.030836999 1 0.11274473 0.94569439 0.30487826 0
-0.045852002 0.12073 0.027665 1 0.23199758 0.6463387 0.72692746 0
0.050781999 0.072154999 0.020679999 1 -0.13033108 0.91252011 0.38771227 0
-0.089607 0.13971099 0.029309001 1 -0.9923166 -0.10210273 0.069877587 0
-0.053323001 0.15273499 0.016214 1 0.87799066 0.45767388 0.1402391 0
-0.015227 0.127849 0.021545 1 -0.32059413 0.89583242 0.30773944 0
-0.084167004 0.097756997 -0.003276 1 -0.88999134 0.12836209 -0.43753681 0
-0.084969997 0.15322299 0.012654 1 -0.40572634 0.90472835 -0.12981783 0
-0.010866 0.126917 0.027574999 1 -0.26149267 0.86737233 0.42342272 0
-0.088761002 0.097037002 0.021079 1 -0.9589076 0.11693483 0.25850019 0
-0.064810999 0.034531001 0.015508 1 -0.35475892 -0.87001055 0.34238514 0
-0.064300001 0.035085998 0.024272 1 -0.86708784 0.021640992 -0.49768499 0
-0.066726997 0.035896 0.033849001 1 -0.96883696 -0.20182046 0.14360873 0
-0.07254 0.035399001 0.00703 1 -0.88400531 -0.42078781 0.20364739 0
-0.069209002 0.035455 0.012042 1 -0.76029724 -0.16686374 0.62777752 0
-0.064161003 0.035900999 0.017688001 1 -0.82201594 -0.0048001609 0.5694443 0
-0.066803999 0.037377998 0.033296 1 -0.96318883 0.25619102 0.081446357 0
-0.062927999 0.039062001 0.042707998 1 -0.76809657 0.21844769 0.60192037 0
-0.071751997 0.036789 0.0086970003 1 -0.88052547 0.21285394 0.4235186 0
-0.065171003 0.037289999 0.025954001 1 -0.83818024 0.21675017 -0.50047302 0
-0.066391997 0.037712 0.029622 1 -0.95995593 0.19925727 -0.19692926 0
-0.064558998 0.039639998 0.039411999 1 -0.87733841 0.30110687 0.37364691 0
-0.060146 0.041202001 0.044294 1 -0.50566453 0.40428922 0.76213765 0
-0.060318001 0.038442999 0.045246001 1 -0.52334982 0.10495342 0.84562975 0
-0.039494999 0.037551999 0.042870998 1 -0.30301407 0.094168894 0.94832206 0
-0.072016001 0.037572999 0.0039789998 1 -0.96658772 0.25063419 -0.053764358 0
-0.071694002 0.039461002 0.0060140002 1 -0.92251003 0.38568065 -0.01502337 0
-0.071166001 0.039365999 0.0081139999 1 -0.72228426 0.44313648 0.530976 0
-0.068999998 0.038468 0.010769 1 -0.70307136 0.37091479 0.60672307 0
-0.067253001 0.038141999 0.013534 1 -0.65482432 0.43172818 0.62033534 0
-0.061126001 0.03779 0.019711001 1 -0.72943485 0.64504665 0.22768326 0
-0.039179999 0.042406999 0.041476 1 -0.28421634 0.35341984 0.89124376 0
-0.035146002 0.038586002 0.047733001 1 -0.75326669 0.068586268 0.65412945 0
-0.028951 0.039285999 0.053309001 1 -0.40927216 0.088278696 0.90813172 0
-0.018224001 0.097494997 0.046847999 1 -0.38874394 0.80524313 0.44772953 0
-0.063754998 0.038249999 0.016593 1 -0.60333353 0.4933618 0.6265642 0
-0.064415999 0.041283999 0.028243 1 -0.77340806 0.49272752 -0.39882267 0
-0.085855998 0.097025 0.027415 1 -0.81662995 0.13675377 0.56072623 0
-0.037501 0.040222 0.044296999 1 -0.7186957 0.2883338 0.63272434 0
-0.034334 0.040924001 0.048425999 1 -0.72462261 0.29932114 0.6207487 0
-0.031173 0.040293999 0.051312 1 -0.58430272 0.22406046 0.77999181 0
-0.069996998 0.042073 0.0066900002 1 -0.71524864 0.67850161 0.16749664 0
-0.080379002 0.097801 0.033645999 1 -0.69601196 0.17759869 0.6957199 0
-0.026272999 0.077630997 0.048356 1 -0.7964527 -0.38314375 0.46782893 0
-0.037501 0.042737 0.042987999 1 -0.68278205 0.46544778 0.56317586 0
-0.026177 0.042498998 0.053314999 1 -0.28637126 0.39535847 0.87274462 0
-0.069637001 0.041880999 0.003183 1 -0.77942032 0.61442626 -0.12241025 0
-0.067157 0.041972999 0.010241 1 -0.6072157 0.54439336 0.57872695 0
-0.087406002 0.102052 0.022019999 1 -0.90704662 0.29501843 0.30038401 0
-0.023944 0.0788 0.053534999 1 -0.70670456 -0.33879194 0.6211189 0
-0.060901999 0.043430001 0.042679001 1 -0.66232365 0.49790144 0.55984062 0
-0.031218 0.043848 0.049780998 1 -0.52202117 0.49769539 0.69267112 0
-0.075728998 0.10354 0.036070999 1 -0.63714278 0.13026096 0.75965846 0
-0.062424999 0.041886002 0.014647 1 -0.5087474 0.6270569 0.58989465 0
-0.061051998 0.044392001 0.012422 1 -0.38606313 0.78845674 0.47884351 0
-0.077644996 0.082215004 0.035797998 1 -0.60815358 -0.35667869 0.70917523 0
-0.060380999 0.045921002 0.040089 1 -0.54722553 0.76801378 0.33271465 0
-0.024982 0.081777997 0.053420998 1 -0.82608289 -0.045757346 0.56168795 0
-0.034453999 0.044564001 0.045423001 1 -0.66537184 0.51748562 0.53804183 0
-0.029843001 0.046782002 0.047747001 1 -0.51157844 0.71463233 0.4770619 0
-0.01512 0.099930003 0.044500001 1 -0.17165007 0.63307846 0.75481647 0
-0.067305997 0.044176999 0.0075960001 1 -0.47349399 0.77587128 0.41692582 0
-0.057852998 0.046445001 0.011063 1 -0.45074031 0.75840807 0.47079757 0
-0.055174001 0.048384 0.038518 1 -0.20416641 0.9225536 0.32743064 0
-0.078849003 0.118674 0.050623 1 -0.60152775 -0.20815518 0.77125597 0
-0.027229 0.087990999 0.047910001 1 -0.80895764 0.23883465 0.53716427 0
-0.036150999 0.046505 0.040741 1 -0.41327879 0.57574058 0.70549518 0
-0.025439 0.090677999 0.048852 1 -0.71877617 0.44277084 0.5360176 0
-0.080049999 0.116704 0.048762001 1 -0.41483116 -0.35889894 0.83612603 0
-0.052514002 0.047578 0.014858 1 -0.61315912 0.58350056 0.53250629 0
-0.032044001 0.050462 0.039342001 1 -0.39919034 0.79444563 0.45771512 0
-0.031488001 0.04693 0.045253001 1 -0.48486692 0.72261095 0.49268386 0
-0.020321 0.093999997 0.051589001 1 -0.4478195 0.71939319 0.53097188 0
-0.072145 0.091555998 0.041494999 1 -0.39885533 0.027865833 0.91659033 0
-0.053644001 0.049357999 0.012202 1 -0.70023012 0.45147237 0.55303752 0
-0.082404003 0.121866 0.049364999 1 -0.29539835 -0.27915192 0.91368157 0
-0.049754001 0.049738001 0.037037 1 -0.41988808 0.60334885 0.67798537 0
-0.032331999 0.048673 0.042523999 1 -0.50106686 0.71973151 0.48053998 0
-0.023123 0.094516002 0.047359001 1 -0.51962519 0.65677726 0.54647362 0
-0.086346999 0.091721997 0.026811 1 -0.82844108 -0.078893878 0.55449176 0
-0.057712998 0.048718002 0.0072770002 1 -0.65657771 0.69929343 0.2826561 0
-0.086970001 0.088912003 0.024879999 1 -0.87423372 -0.24545871 0.41888583 0
-0.092238002 0.124885 0.040787 1 -0.93457544 0.27154094 0.22985721 0
-0.015862999 0.097021997 0.050138999 1 -0.27484345 0.84008163 0.46767929 0
-0.027720001 0.050501999 0.043341 1 -0.32383108 0.84105182 0.43331888 0
-0.085919 0.142634 0.03985 1 -0.63517684 0.55246109 0.53975654 0
-0.075097002 0.090074003 0.039581001 1 -0.62853146 -0.0036836374 0.77777547 0
-0.089431003 0.147306 0.027695 1 -0.85379887 0.39165613 0.34297651 0
-0.053288002 0.051925998 0.01173 1 -0.78937966 0.14232457 0.59717953 0
-0.050168999 0.053461999 0.016255001 1 -0.9689486 -0.2446353 -0.035947416 0
-0.085986003 0.146709 0.034827001 1 -0.6357705 0.62242377 0.45649156 0
-0.069936998 0.086076997 0.042176001 1 -0.47460553 -0.13812041 0.86929411 0
-0.050399002 0.051831 0.034037001 1 -0.80331826 0.39261767 0.44780698 0
-0.083299004 0.149608 0.033741001 1 -0.4905479 0.74059731 0.45921504 0
-0.029175 0.052265 0.037636999 1 -0.3015922 0.74535728 0.59454584 0
-0.088763997 0.119449 0.046560001 1 -0.69628054 -0.10976782 0.70932662 0
-0.083417997 0.094126999 0.030897999 1 -0.76073503 0.032149225 0.64826596 0
-0.056067999 0.053470999 0.0073719998 1 -0.91243315 0.11907855 0.39151752 0
-0.078936003 0.14817201 0.039462999 1 -0.337971 0.76124269 0.5534302 0
-0.067902997 0.087816998 0.043527 1 -0.42422435 0.021896414 0.90529233 0
-0.086604998 0.132268 0.046783 1 -0.7771939 0.27198991 0.56744272 0
-0.092653997 0.12084 0.04163 1 -0.934407 -0.013968109 0.35593325 0
-0.050887 0.052728001 0.014456 1 -0.83461773 0.033822082 0.54979026 0
-0.049763002 0.056240998 0.033624001 1 -0.86085457 0.048579488 0.50652683 0
-0.089771003 0.129049 0.043023001 1 -0.87399042 0.27329877 0.40180653 0
