ply
format ascii 1.0
comment PCL generated
element vertex 664
property float x
property float y
property float z
property float intensity
property float nx
property float ny
property float nz
property float curvature
element camera 0
property float view_px
property float view_py
property float view_pz
property float x_axisx
property float x_axisy
property float x_axisz
property float y_axisx
property float y_axisy
property float y_axisz
property float z_axisx
property float z_axisy
property float z_axisz
property float focal
property float scalex
property float scaley
property float centerx
property float centery
property int viewportx
property int viewporty
property float k1
property float k2
end_header
0.0046689999 0.117407 0.035055 1 0.12838805 0.53152251 0.83725756 0
0.0027300001 0.120716 0.033179 1 0.1993264 0.55345207 0.80867773 0
0.00079199998 0.122595 0.03246 1 0.1752411 0.60138369 0.77950507 0
0.005173 0.123766 0.030673999 1 0.11505152 0.6381138 0.76129752 0
0.001754 0.12849399 0.026289999 1 0.085978657 0.73168844 0.67619503 0
-0.0013689999 0.124766 0.030645 1 0.10552167 0.71049756 0.69574302 0
0.037609 0.117097 0.038350001 1 0.10685378 0.55867338 0.82247567 0
0.041618001 0.120353 0.03475 1 0.17502764 0.68766689 0.70461303 0
0.035061002 0.120602 0.035741001 1 0.036659066 0.66752565 0.7436837 0
-0.013815 0.049747001 0.041476 1 -0.20286323 0.40560961 0.89125043 0
0.087064996 0.049044002 0.0059469999 1 0.93519455 -0.085348144 -0.34369606 0
0.086489998 0.046514999 0.0058400002 1 0.86539704 -0.35907388 -0.34950536 0
-0.0044010002 0.074465998 0.041381001 1 0.23884487 -0.17532319 0.95509946 0
-0.0029899999 0.087044999 0.043161999 1 0.1737082 -0.17759942 0.96865052 0
-0.0021800001 0.091916002 0.043613002 1 0.10686793 -0.020496627 0.99406195 0
-0.001586 0.094655 0.043311998 1 -0.057234049 -0.13417582 0.98930335 0
0.000283 0.098067001 0.044238001 1 -0.15007889 -0.014292723 0.98857075 0
0.001525 0.105157 0.042335998 1 -0.098099634 0.44247556 0.89139885 0
0.0026209999 0.111604 0.038644999 1 -0.038644277 0.51195353 0.85814345 0
0.031084999 0.071822003 0.057697002 1 0.26821035 -0.19428048 0.9435668 0
0.077756003 0.091729999 0.016579 1 0.97445118 0.19151986 0.11732482 0
0.078685001 0.085947998 0.017315 1 0.9841342 0.10594936 0.1423187 0
0.042387001 0.029820999 -0.001898 1 0.023518134 -0.9940654 -0.10621146 0
0.042977002 0.030433999 -0.0037809999 1 0.55692315 -0.7948581 -0.24090897 0
-0.0099870004 0.05311 0.040741 1 -0.28186876 0.65025616 0.70549059 0
-0.0073299999 0.056642 0.038286 1 0.1670907 0.3622447 0.91698396 0
-0.0066530001 0.060153998 0.038059998 1 0.30600891 -0.18582219 0.93371767 0
-0.0052979998 0.066699997 0.039544001 1 0.28036293 -0.26107171 0.92370892 0
-0.00057999999 0.081920996 0.041278001 1 0.16858955 -0.17474632 0.97007287 0
0.0071490002 0.113306 0.038102999 1 -0.051092438 0.56619436 0.82268685 0
0.048386998 0.105463 0.039944999 1 0.32052317 0.17620248 0.93070817 0
0.047708001 0.10901 0.039793 1 0.33824506 0.21733166 0.91561854 0
0.028357999 0.074680001 0.058715001 1 -0.033932906 0.0070497035 0.99939924 0
-0.001174 0.088427 0.042913001 1 0.30531076 -0.18911828 0.9332844 0
0.0014449999 0.091233999 0.04256 1 -0.09947326 -0.19550025 0.97564572 0
0.001774 0.093606003 0.043697 1 -0.1874727 -0.19158858 0.96340424 0
0.0046740002 0.108597 0.040738001 1 -0.085446425 0.50508857 0.85882741 0
-0.002106 0.073119 0.040123999 1 0.31621289 -0.22817908 0.92083853 0
0.00043300001 0.087444 0.041852001 1 0.17554951 -0.17587472 0.96863329 0
0.027038001 0.095113002 0.054446001 1 0.057083167 0.63796711 0.76794493 0
0.030389 0.096381001 0.052744001 1 0.11130315 0.80365062 0.58460003 0
0.003602 0.095408998 0.044172999 1 -0.084974192 -0.14213669 0.98619288 0
0.032993998 0.115856 0.039283998 1 0.010943725 0.53223604 0.84652537 0
0.031808 0.110898 0.042040002 1 0.012475187 0.40562648 0.91395372 0
-0.002901 0.059664998 0.036694001 1 0.16804366 -0.048252303 0.98459792 0
-0.00085700001 0.067470998 0.037981998 1 0.26569772 -0.25009015 0.93105298 0
0.0068919999 0.098344997 0.044821002 1 -0.055054083 0.035285592 0.99785972 0
0.0058590001 0.101255 0.044651002 1 -0.044879057 0.29754433 0.95365256 0
0.002354 0.084776998 0.041797999 1 -0.6799432 -0.089370929 0.7277981 0
0.0086089997 0.105836 0.042633001 1 -0.056301292 0.46552548 0.88324189 0
0.080259003 0.051777001 0.028282 1 0.37777051 0.34553653 0.85900754 0
0.079003997 0.055082999 0.026851 1 0.17850584 0.61446577 0.76848382 0
0.044597998 0.032219999 -0.0047019999 1 0.55905449 -0.74459702 -0.36473736 0
0.001647 0.074170001 0.039368998 1 -0.028795315 -0.22811818 0.97320759 0
0.0028260001 0.079662003 0.041186001 1 -0.46456897 -0.19595736 0.86358345 0
0.0042849998 0.089815997 0.043745 1 -0.74200469 0.094948649 0.66363686 0
0.006079 0.094595 0.044236999 1 -0.43477041 0.15064576 0.88785172 0
0.0085119996 0.101568 0.043761 1 0.051907279 0.2156394 0.97509241 0
0.078731 0.076486997 0.013124 1 0.99234957 -0.10533076 0.06440261 0
0.078775004 0.081226997 0.017832 1 0.99294955 -0.056849275 0.10401604 0
0.059973001 0.043492001 0.032758001 1 0.55985165 -0.54812926 0.62138587 0
0.026642 0.083976999 0.057169002 1 0.08923693 0.082228124 0.99261034 0
0.0055220001 0.083985001 0.047697 1 -0.89023405 -0.02437781 0.45485055 0
0.006538 0.088003002 0.048746001 1 -0.84295303 0.24100886 0.48098338 0
0.085518003 0.050462998 0.002628 1 0.82822376 -0.036223989 -0.5592255 0
0.086960003 0.054152001 0.0057250001 1 0.90829974 0.21264459 -0.36024144 0
0.053736001 0.12553801 0.014342 1 0.46062177 0.88681674 0.037196394 0
0.001066 0.065622002 0.037471 1 -0.42800194 -0.06793803 0.90122074 0
-0.00036800001 0.059257001 0.036787 1 -0.49180359 0.21960281 0.84255785 0
0.076453 0.091473997 -0.0020049999 1 0.90995872 0.21512142 -0.35453898 0
0.075052001 0.098113999 0.00034 1 0.89541131 0.3117938 -0.31784168 0
0.052928999 0.121153 0.029857 1 0.37110692 0.74375933 0.55596912 0
0.051302999 0.117291 0.034719002 1 0.31589094 0.52961415 0.78722411 0
0.076485999 0.062574998 0.018354001 1 0.97320068 -0.0439112 0.22572614 0
0.077656999 0.071794003 0.019701 1 0.97925967 -0.13204896 0.15366741 0
-0.00089999998 0.055229001 0.043341 1 -0.13821463 0.89057356 0.43333086 0
-0.003763 0.052044 0.047747001 1 -0.34849516 0.80684954 0.47701663 0
-0.00024699999 0.052338999 0.049323 1 -0.14197668 0.80359602 0.57799315 0
0.0032579999 0.071222998 0.039671998 1 -0.77199417 -0.090235807 0.62919194 0
0.011366 0.101901 0.044211 1 -0.12426195 0.2588248 0.95789802 0
0.01491 0.114842 0.037560001 1 -0.1172768 0.60368735 0.78854787 0
0.012303 0.107381 0.042208001 1 -0.13342234 0.48758084 0.86282301 0
0.040428001 0.117214 -0.013611 1 0.039779786 0.73242259 -0.6796872 0
0.041048001 0.11387 -0.017337 1 0.076772936 0.63155305 -0.77152234 0
0.038226999 0.113703 -0.017169001 1 0.018147076 0.64708632 -0.76220071 0
0.034483999 0.081675 0.057445999 1 0.094401859 -0.028032489 0.99513948 0
0.0022219999 0.060883 0.039182 1 -0.7791568 0.12906562 0.61339772 0
0.00397 0.066519 0.040642001 1 -0.82300603 0.029790936 0.56725091 0
0.0063470001 0.071466997 0.045178 1 -0.86001796 -0.092678428 0.50177664 0
0.063124999 0.047991 0.033601001 1 0.64237559 -0.48406112 0.59417021 0
0.0093 0.096799999 0.044975001 1 -0.38553488 0.49563235 0.77827466 0
0.018007999 0.111317 0.040715002 1 -0.099372126 0.49331596 0.86415541 0
0.015691999 0.118578 0.034095 1 -0.11025169 0.69386286 0.71161717 0
0.003827 0.053571999 0.046606001 1 0.066925734 0.8507157 0.52134794 0
0.079002 0.058095001 0.023731999 1 0.11306239 0.76563132 0.63326573 0
0.051295001 0.124178 0.026156999 1 0.32474124 0.86867791 0.37408784 0
0.05827 0.122735 0.013237 1 0.56148136 0.82724547 0.020090966 0
0.011978 0.098855004 0.044434998 1 -0.27836937 0.39294833 0.8764143 0
0.003364 0.050223999 0.051885001 1 0.12549679 0.60383153 0.78717083 0
0.0038729999 0.054724999 0.043926001 1 -0.11038298 0.8643561 0.49061614 0
0.002411 0.056664001 0.04084 1 -0.60033846 0.46203917 0.65277368 0
0.014933 0.105358 0.043545 1 -0.035212405 0.36722207 0.92946655 0
-0.001088 0.047081001 0.053314999 1 -0.19608502 0.44706517 0.8727448 0
0.0034469999 0.047657002 0.053243998 1 0.23454714 0.28045574 0.93076974 0
0.003818 0.051722001 0.050127 1 0.19398849 0.82065779 0.53748423 0
0.022443 0.105278 0.042918999 1 -0.018176951 0.25260893 0.96739775 0
0.021888001 0.100865 0.044500001 1 -0.033537216 0.65509522 0.75480157 0
0.025572 0.10124 0.044192001 1 0.017380567 0.72036338 0.6933791 0
0.007582 0.129673 0.021636 1 0.43539357 0.76720363 0.47098941 0
0.014446 0.100716 0.044766001 1 -0.082658052 0.36965799 0.92548406 0
0.040555999 0.062696002 0.053982001 1 0.34527349 -0.19685362 0.91762459 0
0.019259 0.115929 0.037873 1 -0.1504927 0.62542558 0.76563358 0
0.050664 0.083077997 0.050523002 1 0.56616646 0.060989399 0.82203156 0
0.050843999 0.0779 0.051286001 1 0.43122298 0.18035132 0.88403624 0
0.0070000002 0.054648001 0.046142001 1 -0.61318171 0.21563232 0.75994134 0
0.0064340001 0.060121 0.045467 1 -0.791269 0.052505888 0.60920978 0
0.057410002 0.116276 0.031374998 1 0.44434395 0.62178278 0.64493769 0
0.055101 0.117496 0.032503001 1 0.45955893 0.6138559 0.64186174 0
0.056883 0.112689 0.035041999 1 0.35818091 0.48344287 0.79874241 0
0.017375 0.104109 0.043701001 1 0.080172762 0.24997507 0.96492738 0
0.07728 0.045240998 0.030001 1 0.45086882 -0.18294728 0.87364042 0
0.077536002 0.04826 0.030245 1 0.38530633 0.06645143 0.92039299 0
0.0085180001 0.050590001 0.048829999 1 0.3085357 0.68412125 0.6608963 0
0.058715999 0.120475 0.000223 1 0.5583896 0.73974043 -0.37548 0
0.020099999 0.10648 0.042803001 1 0.015225181 0.31943932 0.94748437 0
0.041577 0.072587997 0.055257 1 0.29231155 -0.027285628 0.95593387 0
0.040601 0.077187002 0.055374999 1 0.32119048 -0.077393502 0.94384694 0
0.0099269999 0.047541 0.050652999 1 0.3737126 0.43502027 0.81920469 0
0.0084729996 0.052599002 0.046948001 1 -0.12391102 0.30919859 0.94289047 0
0.0099480003 0.054249998 0.048459001 1 -0.60774988 -0.2189981 0.76333469 0
0.052418001 0.125442 0.020715 1 0.37667716 0.90362388 0.20390722 0
0.011233 0.086142004 0.055590998 1 -0.52074873 0.14902999 0.84060144 0
0.012237 0.082125999 0.056014001 1 -0.47088721 -0.19395643 0.86060804 0
0.014478 0.085634001 0.057216998 1 -0.2835426 0.09164688 0.95457029 0
0.024003001 0.073790997 0.057971999 1 -0.2635262 -0.025800072 0.96430713 0
0.050643001 0.087747 0.049938999 1 0.5870077 0.21784629 0.77972108 0
0.017677 0.088820003 0.056740999 1 -0.085319147 0.2005938 0.97595221 0
0.014576 0.090276003 0.055589002 1 -0.34453174 0.41033506 0.84434766 0
0.01802 0.100724 0.044489 1 -0.014546412 0.51183945 0.85895801 0
0.02369 0.116596 0.037852999 1 -0.14613907 0.6050384 0.78266978 0
0.059633002 0.063596003 -0.021282 1 0.64690077 -0.2828511 -0.70817691 0
0.056097999 0.063066997 -0.023879001 1 0.59728318 -0.3151814 -0.73750496 0
0.056084 0.067013003 -0.024939001 1 0.56913429 -0.1141222 -0.81428635 0
0.039175 0.080208004 0.056462999 1 0.24891655 -0.13841692 0.958583 0
0.014518 0.079497002 0.056086998 1 -0.31225792 -0.19072977 0.93065411 0
0.016376 0.084282003 0.057523999 1 0.045064252 -0.085092768 0.9953534 0
0.011114 0.056501999 0.050306998 1 -0.49360713 -0.20910202 0.84417319 0
0.0097479997 0.060070999 0.049763002 1 -0.72888327 -0.040937934 0.68341291 0
0.013225 0.071768999 0.054090001 1 -0.54774052 -0.16810264 0.81958634 0
0.015619 0.072530001 0.055004999 1 -0.17165722 -0.2141587 0.96159756 0
0.020052001 0.092965998 0.055817001 1 -0.16231823 0.4620437 0.87187636 0
0.016129 0.094126001 0.053821001 1 -0.29127294 0.5905292 0.75261897 0
0.056184001 0.122056 0.025110001 1 0.4958674 0.79497963 0.3494609 0
0.023556 0.108839 0.042350002 1 -0.092587866 0.38342935 0.91891754 0
0.027164999 0.119874 0.036251999 1 -0.10169914 0.68460429 0.72178543 0
0.012568 0.049637999 0.047883999 1 0.057126839 0.14650205 0.98755944 0
0.013018 0.062771998 0.052365001 1 -0.57141101 -0.11800446 0.8121357 0
0.012993 0.056233998 0.05071 1 -0.3893525 -0.27312994 0.87966174 0
0.014975 0.067218997 0.053730998 1 -0.30182797 -0.075177722 0.95039368 0
0.01749 0.077927999 0.056492999 1 -0.22362331 -0.14096354 0.96442831 0
0.018165 0.084288001 0.056935001 1 -0.093517773 -0.032603987 0.99508363 0
0.021198999 0.090636 0.056674 1 -0.012486892 0.1923231 0.98125219 0
0.021466 0.095490001 0.053994 1 -0.099809855 0.71297055 0.69405389 0
0.055874001 0.123835 0.01969 1 0.53446865 0.83341962 0.14055239 0
0.027398 0.116048 0.03892 1 -0.080080792 0.51069146 0.85602647 0
0.029366 0.122488 0.033588 1 -0.058960192 0.80724698 0.58726138 0
0.072722003 0.033906002 0.0023020001 1 0.3741793 -0.82842934 -0.41676688 0
0.073035002 0.060862999 -0.00223 1 0.87366498 -0.32715705 -0.36010814 0
0.017047999 0.072196998 0.054696001 1 -0.21819492 -0.20618108 0.95387638 0
0.021423999 0.085915998 0.057268001 1 -0.05078109 0.10217499 0.99346948 0
0.014056 0.050930001 0.049484 1 -0.36809 -0.44010621 0.81903374 0
0.019401001 0.074036002 0.056249999 1 -0.35908514 -0.19253941 0.91322857 0
0.021295 0.080473997 0.057698999 1 -0.13497305 -0.00081745163 0.99084896 0
0.025119999 0.104913 0.043466002 1 -0.073563278 0.18213741 0.98051739 0
0.027419001 0.109802 0.042475 1 -0.082718201 0.39879069 0.91330373 0
0.063174002 0.103046 0.036727998 1 0.45665371 0.37886912 0.80493826 0
0.016655 0.054680999 0.051959001 1 -0.30667752 -0.29849219 0.90379828 0
0.020044999 0.069540001 0.055289999 1 -0.31096715 -0.13072357 0.94138771 0
0.021948 0.076715998 0.057388999 1 -0.20434624 -0.041834995 0.97800434 0
0.024103001 0.092644997 0.056104999 1 0.0069432743 0.4038794 0.91478586 0
0.023685999 0.089114003 0.056665 1 -0.011343581 0.15860443 0.98727703 0
0.078808002 0.081111997 0.0022470001 1 0.97826928 -0.027735829 -0.20547467 0
0.029867001 0.102322 0.043710999 1 -0.003355484 0.11448552 0.99341923 0
0.018079 0.065684997 0.054917999 1 -0.25315109 0.020832231 0.96720243 0
0.024982 0.083883002 0.057604998 1 0.014670748 0.10552521 0.99430841 0
0.029361 0.099533997 0.047488999 1 0.082057066 0.90307152 0.42157844 0
0.020546 0.098180003 0.050138999 1 -0.090576708 0.87924027 0.46768838 0
0.030825 0.100244 0.044321999 1 0.14491725 0.80513018 0.57512122 0
0.039891001 0.041528001 0.043793999 1 0.33422172 -0.13033073 0.93343979 0
0.03895 0.038621999 0.044509999 1 0.19053864 -0.0080147739 0.98164696 0
0.044406001 0.081756003 0.054733001 1 0.43980211 -0.13771747 0.88747287 0
0.066266999 0.091811001 0.039404999 1 0.65165198 0.29356125 0.69940794 0
0.062385999 0.093065001 0.041733 1 0.56935 0.36351031 0.73736084 0
0.064144 0.088409998 0.042257998 1 0.56327689 0.23377556 0.79250747 0
0.038194999 0.055613 0.052483998 1 0.34270307 -0.30181926 0.88964021 0
0.038547002 0.059193 0.054009002 1 0.38585818 -0.30881694 0.86933625 0
0.0079990001 0.037689 0.050133999 1 -0.083173364 -0.88586152 0.45643356 0
0.01385 0.037168998 0.049433999 1 0.15433024 -0.50112695 0.85150093 0
0.0058530001 0.039223 0.052221999 1 0.13300332 -0.5505181 0.82416016 0
0.060116999 0.090617001 0.044686999 1 0.59848493 0.29442424 0.74507058 0
0.058906998 0.088021003 0.046347 1 0.48648301 0.15462188 0.85989904 0
0.082671002 0.051631998 0.02698 1 0.596641 0.21649066 0.77275562 0
0.081216998 0.048565999 0.028269 1 0.56499845 -0.049240518 0.82362127 0
0.047759 0.067766003 0.051826999 1 0.39186525 -0.2942529 0.87169766 0
0.049252 0.070247002 0.052487999 1 0.43239895 -0.25807217 0.86396176 0
0.045485999 0.071928002 0.054221001 1 0.30438423 -0.16651982 0.93788135 0
0.081067003 0.045478001 0.027652999 1 0.64384449 -0.31826127 0.69582611 0
0.068127997 0.054442 0.031686999 1 0.82166344 -0.29015854 0.49058846 0
0.065095 0.051725 0.034366 1 0.73598284 -0.40594077 0.54179454 0
0.076990999 0.077108003 -0.003571 1 0.94364738 -0.12235929 -0.3075026 0
-0.015152 0.045069002 0.042870998 1 -0.27617627 0.1563102 0.94831103 0
-0.019161999 0.044643 0.044041999 1 0.27595344 -0.14372034 0.95036525 0
0.084515996 0.050202999 0.025286 1 0.76984978 -0.050906528 0.63619161 0
0.077425003 0.041083999 0.027927 1 0.54192621 -0.51749581 0.66220391 0
0.040355001 0.048351999 0.048594002 1 0.344295 -0.56065404 0.753079 0
0.045343999 0.046039999 0.044799 1 0.31105986 -0.67509413 0.66894662 0
0.045947999 0.049844 0.047722001 1 0.36390159 -0.42764729 0.82746202 0
0.051608998 0.040881 -0.016427999 1 0.49867296 -0.7761234 -0.38595051 0
0.048849002 0.037921 -0.010821 1 0.48224282 -0.82723278 -0.28831869 0
0.046562001 0.039299 -0.017529 1 0.49469379 -0.74321175 -0.45046017 0
0.054896001 0.054226 -0.022291999 1 0.66407478 -0.23237903 -0.71063679 0
0.05855 0.052586999 -0.018133 1 0.63085681 -0.37922281 -0.67691201 0
0.057597 0.0495 -0.016518001 1 0.67607379 -0.44630876 -0.58628732 0
0.042688001 0.056910999 0.050501 1 0.43284097 -0.26127636 0.86277646 0
0.045724001 0.061253998 0.051010001 1 0.4357017 -0.30262348 0.84769273 0
0.041721001 0.060008001 0.052441001 1 0.44904119 -0.34930936 0.82240194 0
0.041995998 0.051911 0.049523 1 0.37762141 -0.29957435 0.8761605 0
0.038977001 0.052901998 0.051913999 1 0.40395254 -0.31209707 0.85989404 0
0.000298 0.041191999 0.054145001 1 0.12028528 -0.24669896 0.96159828 0
-0.0031729999 0.041071001 0.053351998 1 -0.31117153 -0.51370984 0.79954636 0
0.00062599999 0.039684001 0.052864999 1 -0.14483161 -0.89601153 0.4197467 0
0.071491003 0.100067 -0.0069889999 1 0.83488637 0.34224191 -0.43108621 0
0.074808002 0.094461001 -0.0032029999 1 0.88461065 0.30744961 -0.35062623 0
0.073331997 0.093594998 -0.0079619996 1 0.88029087 0.22961219 -0.41517004 0
0.060295001 0.111535 0.034271002 1 0.44863734 0.43155113 0.78261626 0
0.069406003 0.087618001 0.037590001 1 0.74210888 0.21907346 0.63346767 0
0.066647001 0.097901002 0.036589999 1 0.62260467 0.26975101 0.73457319 0
0.065523997 0.095159002 0.038035002 1 0.58118391 0.33782789 0.74033612 0
0.045201998 0.053153999 0.048865002 1 0.31805205 -0.15997639 0.9344787 0
0.081436999 0.040081002 0.023197999 1 0.65674609 -0.56605309 0.49826556 0
0.076370999 0.036789998 0.024148 1 0.46221045 -0.7284531 0.50568527 0
0.075345002 0.064291999 0.023155 1 0.91113627 -0.20277652 0.35876507 0
0.069057003 0.034046002 0.025517 1 0.31044546 -0.83154941 0.46059662 0
0.072837003 0.033174001 0.020659 1 0.33587626 -0.89844632 0.28280964 0
0.084867001 0.047775 0.024202 1 0.796462 -0.28396973 0.53386283 0
0.082946002 0.043667 0.024292 1 0.71069217 -0.42662153 0.55938417 0
0.066643998 0.056111 0.035133 1 0.77314019 -0.28202829 0.56807953 0
0.064772002 0.057533 0.037781 1 0.69955063 -0.16531642 0.69519746 0
0.063088 0.052740999 0.037606001 1 0.67406189 -0.33932868 0.65612239 0
0.073515996 0.084578 0.03252 1 0.85179913 0.050639618 0.52141529 0
0.075346 0.090632997 0.027550999 1 0.87928224 0.14576845 0.4534471 0
0.072431996 0.089152001 0.032838002 1 0.81379968 0.18292682 0.55160481 0
0.085326001 0.042529002 0.0094529996 1 0.83469027 -0.52497143 -0.16642462 0
0.084958002 0.054168001 0.023969 1 0.72531945 0.25518006 0.63937068 0
0.069091998 0.065783001 0.035050999 1 0.79684794 -0.19680318 0.57122833 0
0.068549998 0.070225999 0.037198 1 0.71609169 -0.19034141 0.6715526 0
0.065641001 0.063900001 0.038481999 1 0.68245494 -0.20604174 0.70128602 0
0.061108001 0.074579 0.044527002 1 0.64274704 -0.051481374 0.76434666 0
0.061917 0.079989001 0.044234 1 0.63863015 -0.092248239 0.76396447 0
0.059524 0.080989003 0.046654999 1 0.55975622 0.0061353697 0.82863462 0
0.083365999 0.055677 0.024518 1 0.46280876 0.53254342 0.70866466 0
0.050574999 0.052409001 0.045871001 1 0.5192917 -0.36105508 0.77458084 0
0.053098001 0.057018999 0.045205001 1 0.53751093 -0.11529152 0.83533818 0
0.049793001 0.054852001 0.047281999 1 0.53761154 -0.12150441 0.83439225 0
0.068705 0.074862003 0.037937 1 0.75150418 -0.18473527 0.63333595 0
0.071570002 0.077362001 0.035186 1 0.82933074 -0.13023441 0.54336864 0
0.067534 0.077666998 0.040573999 1 0.75265318 -0.18304341 0.63246214 0
0.049830001 0.073918 0.052760001 1 0.42593604 0.040926807 0.90382713 0
0.046723999 0.084903002 0.053394999 1 0.52353591 0.078033306 0.84842265 0
0.048689 0.058134999 0.04792 1 0.49728003 -0.22897932 0.83682793 0
0.072848998 0.037670001 0.028165 1 0.414579 -0.67229819 0.61330193 0
0.073450997 0.068125002 0.029186999 1 0.85083485 -0.19950542 0.48608389 0
0.069379002 0.060242999 0.03272 1 0.81398994 -0.21104395 0.54118466 0
0.052747 0.044431001 0.038752001 1 0.39655906 -0.4538478 0.79797435 0
0.057266001 0.045033 0.036913998 1 0.53092939 -0.50920498 0.67736572 0
0.055677 0.048714999 0.040389001 1 0.44976324 -0.46619463 0.76182395 0
0.043180998 0.035751998 0.042640999 1 0.38874206 -0.21892977 0.89495772 0
0.045196999 0.034653001 0.040846001 1 0.58506745 -0.53602237 0.6085853 0
0.046843 0.037836999 0.040904999 1 0.60104299 -0.22208643 0.76774019 0
0.050540999 0.039802998 0.038277 1 0.50684696 -0.23577251 0.82916671 0
0.043363001 0.039234001 0.04301 1 0.4172205 0.0047312975 0.90879297 0
0.046829 0.042449001 0.040693998 1 0.43842214 -0.20603397 0.8748349 0
0.051578 0.037757002 0.036153 1 0.62265623 -0.54820508 0.55836397 0
0.049743 0.042066 -0.019672999 1 0.35192069 -0.6951164 -0.62686926 0
0.050868999 0.048563998 0.043086998 1 0.46516889 -0.53995544 0.70147419 0
0.047297001 0.054501001 0.048576001 1 0.41148371 -0.19675484 0.88992625 0
0.042116001 0.043791 0.043678999 1 0.3484709 -0.58035266 0.73604268 0
0.063125998 0.108942 0.033537 1 0.52297324 0.41947073 0.74198604 0
0.084876001 0.054299001 0.0026529999 1 0.61021382 0.3239556 -0.7229743 0
-0.027357999 0.051571 0.04617 1 0.41827828 0.17654634 0.89099646 0
-0.0262 0.048241999 0.046286002 1 0.33602256 0.15822715 0.92846811 0
-0.020462999 0.047538001 0.044504002 1 0.32532388 0.1480182 0.93394595 0
0.041142002 0.030551 -0.0086780004 1 0.43698582 -0.88137668 -0.17949493 0
0.056954999 0.077464998 0.048292 1 0.55608559 0.0090243686 0.83107609 0
0.056869 0.071580999 0.048027001 1 0.60577607 -0.15146331 0.78108525 0
0.036571 0.034775 0.044500999 1 0.20337014 -0.11148518 0.97273415 0
0.048305001 0.048064999 0.045102 1 0.49590737 -0.54880708 0.67296869 0
-0.025315 0.045784 0.045954999 1 0.24984778 -0.23135437 0.94024009 0
0.046556 0.075209998 0.053755999 1 0.30910933 0.14630166 0.93970597 0
0.052832 0.036262002 0.032157999 1 0.53687757 -0.69989312 0.47107556 0
0.070597999 0.098214999 0.031916 1 0.77737099 0.24324858 0.58010721 0
0.067519002 0.102805 0.033806 1 0.66889167 0.35881954 0.65102416 0
0.066050999 0.061912 0.037115 1 0.7255497 -0.18968268 0.66151196 0
0.062304001 0.058462001 0.039728999 1 0.55317521 -0.15853441 0.81784105 0
0.050696999 0.063312002 0.049004 1 0.48072007 -0.3304843 0.81221199 0
0.053585999 0.068634003 0.049311999 1 0.54786092 -0.29421002 0.78312767 0
0.053194001 0.063528001 0.047013 1 0.62320882 -0.39506617 0.67493224 0
0.075476997 0.074536003 0.027874 1 0.89088899 -0.11899886 0.4383561 0
0.053741999 0.073821001 0.050425 1 0.51192087 -0.031613123 0.85845077 0
0.058031999 0.054389 0.041545998 1 0.50783563 -0.24853727 0.82482255 0
0.058279 0.058777001 0.042289 1 0.51805842 -0.10048749 0.84942192 0
0.063294001 0.064842999 0.040486999 1 0.58188838 -0.23957613 0.77718025 0
0.059526 0.062739 0.041653998 1 0.48026422 -0.20406975 0.8530544 0
0.060488001 0.031385999 -0.00085900002 1 0.16664217 -0.84107679 -0.51460695 0
0.067711003 0.034242 -0.0012619999 1 0.27110767 -0.76090562 -0.58951098 0
0.066669002 0.031739 0.0020630001 1 0.29267466 -0.87456495 -0.38662332 0
0.067028001 0.084738001 0.040890001 1 0.66215605 0.16961703 0.72991747 0
0.076656997 0.097544 0.013142 1 0.95584989 0.28951776 0.050303951 0
0.060869001 0.053369001 0.039781 1 0.50966066 -0.27972063 0.81363529 0
0.046223 0.079503 0.053066 1 0.42311177 0.024070026 0.90575773 0
0.059512001 0.066262998 0.043446999 1 0.48810285 -0.38645497 0.78256506 0
0.063184999 0.083930999 0.043919999 1 0.55969495 0.075981773 0.82520807 0
0.062413 0.070660003 0.043389 1 0.62624347 -0.20528276 0.75211579 0
0.056811001 0.068331003 0.046417002 1 0.5773257 -0.38469493 0.72021163 0
0.060699999 0.050071001 0.038311001 1 0.55691159 -0.48803654 0.67206389 0
0.066353999 0.080007002 0.042215001 1 0.59408689 -0.01962189 0.80416161 0
0.063245997 0.076577999 0.043010999 1 0.53182977 -0.060703896 0.8446728 0
0.061301 0.098699003 0.039377999 1 0.48670447 0.34551421 0.8023333 0
0.054593999 0.052866001 0.043453999 1 0.53508842 -0.2635226 0.8026433 0
0.055415999 0.060929999 0.043903001 1 0.53832537 -0.084413268 0.83849877 0
0.055514999 0.063510001 0.044539999 1 0.57052124 -0.30732679 0.76161391 0
0.022159001 0.038947999 0.047263 1 0.26110902 -0.024834972 0.96498978 0
0.049536001 0.045286998 0.041053001 1 0.40883857 -0.61277217 0.67628485 0
0.051824 0.047407001 -0.021691 1 0.62286317 -0.35756093 -0.69583869 0
0.055590998 0.047798 -0.018042 1 0.72758538 -0.26971248 -0.63077313 0
0.052552 0.044581 -0.020234 1 0.59114701 -0.48364514 -0.64547074 0
0.074790999 0.079704002 0.029889001 1 0.88191789 -0.04857954 0.46889326 0
0.046048999 0.02885 0.0039889999 1 -0.052639872 -0.98192573 -0.18179922 0
0.051500998 0.028822999 0.0035629999 1 0.037861098 -0.95563352 -0.29211479 0
0.069188997 0.081303 0.039184 1 0.79963827 0.043993857 0.59886819 0
0.083536997 0.039292 0.015182 1 0.79233956 -0.60968256 0.022026977 0
0.085973002 0.042877 0.013343 1 0.88368809 -0.4675096 0.023025379 0
0.065522999 0.074878998 0.041637 1 0.60442907 -0.1634704 0.77970695 0
-0.0095889997 0.042626001 0.049090002 1 -0.6956709 -0.26045457 0.6694814 0
-0.010683 0.045157999 0.047733001 1 -0.72164166 0.22663084 0.65411901 0
-0.01296 0.042929001 0.044794001 1 -0.73630875 -0.18191773 0.65173256 0
0.071461 0.059200998 0.028317999 1 0.85364741 -0.20610908 0.47833586 0
0.028291 0.036068 0.045867998 1 0.17731296 -0.038514104 0.98340064 0
0.078114003 0.059886001 0.0060009998 1 0.49986425 0.72711629 -0.47057155 0
0.063717 0.035526 0.029991999 1 0.063955277 -0.68277901 0.72782046 0
0.0020649999 0.044470999 0.053986002 1 0.20273231 0.053981971 0.97774512 0
-0.001341 0.043412998 0.054161001 1 -0.13061172 0.070458516 0.98892677 0
0.066453002 0.035440002 0.029041 1 0.25043422 -0.78971946 0.56002313 0
0.042780001 0.033204 -0.012508 1 0.69455671 -0.68589026 -0.21712999 0
0.046048999 0.037223998 -0.014536 1 0.68298632 -0.68033534 -0.26584491 0
0.045258999 0.034910999 -0.0094630001 1 0.62177944 -0.73028094 -0.28298408 0
0.042056002 0.066808 0.05424 1 0.38803568 -0.18600896 0.90267879 0
0.085519999 0.044117998 0.020269999 1 0.85709971 -0.37873781 0.34919581 0
0.081569999 0.038040001 0.019941 1 0.6517334 -0.69736791 0.29819733 0
0.084739998 0.041777 0.018648 1 0.84258533 -0.49985677 0.20048241 0
0.086438 0.057374999 0.0080310004 1 0.75987262 0.58126247 -0.29108012 0
0.085484996 0.056398001 0.004919 1 0.59189641 0.61058158 -0.52616405 0
0.083265997 0.059004001 0.0068009999 1 0.36026922 0.83232909 -0.42122957 0
0.081352003 0.037009001 0.015564 1 0.60752511 -0.79357821 0.03386604 0
0.087623 0.057197999 0.013073 1 0.86286336 0.50045156 -0.070817925 0
0.088533998 0.054265998 0.016171999 1 0.96844184 0.19011126 0.16117765 0
0.0065159998 0.041761 0.052402999 1 0.30065906 -0.086435728 0.94980681 0
0.062162001 0.067550004 0.042699002 1 0.50521767 -0.32276881 0.80035961 0
0.048934001 0.036384001 -0.0070170001 1 0.42963916 -0.74816823 -0.5056228 0
-0.0052169999 0.040709 0.017349999 1 0.57039481 -0.79188156 0.21811296 0
-0.011198 0.041315001 0.034577999 1 0.47767711 -0.8612538 0.17339717 0
-0.0063720001 0.039824001 0.016353 1 0.48297867 -0.85302657 0.19767995 0
0.062422 0.113824 0.030879 1 0.59934294 0.59663016 0.53368568 0
0.059859999 0.11465 0.031968001 1 0.37989736 0.64943641 0.65871876 0
0.045572001 0.066711999 0.052717 1 0.368918 -0.22921115 0.90075624 0
0.076273002 0.070568003 0.024553001 1 0.93006861 -0.16199929 0.32974017 0
0.075553998 0.084357001 0.028658001 1 0.90815359 0.047873572 0.41589081 0
0.074676 0.059845999 0.022531001 1 0.88738811 0.038672555 0.45939821 0
0.012285 0.039209999 0.050276 1 0.30658069 -0.097465232 0.94684154 0
0.061182 0.029825 0.003094 1 0.1832795 -0.9522894 -0.24403594 0
0.01654 0.039666001 0.048928998 1 0.28008398 -0.070844777 0.95735776 0
0.071915001 0.068063997 -0.0082130004 1 0.78671408 -0.22549136 -0.57466042 0
0.074143998 0.074777 -0.0091580003 1 0.87209535 -0.24626566 -0.42285103 0
-0.018572999 0.063225001 0.037586998 1 -0.54280984 0.046147432 0.83858687 0
0.00612 0.041122999 0.020243 1 -0.18650691 -0.98209947 0.026376169 0
-0.0017 0.042472001 0.019981001 1 -0.17002471 -0.98388821 0.055278145 0
0.083410002 0.049644001 0.00069000002 1 0.65872413 0.073709525 -0.74876529 0
0.051153 0.050035 -0.024255 1 0.63255286 -0.38522586 -0.67192107 0
0.058423001 0.032616001 0.026969999 1 0.075745091 -0.81514716 0.57428032 0
0.052076999 0.032136001 0.027234999 1 0.17973088 -0.80763376 0.56162667 0
0.056426998 0.030316999 0.022929 1 0.096008107 -0.93737733 0.33482277 0
-0.010125 0.040695999 0.036913998 1 -0.24252447 -0.96766287 0.069357626 0
-0.018169001 0.042567 0.033199999 1 -0.21521217 -0.97656727 6.1959981e-05 0
0.063234001 0.077936001 -0.020408001 1 0.54147595 0.0050467723 -0.8407011 0
0.068573996 0.077959999 -0.017108999 1 0.64993072 0.038578141 -0.75901365 0
0.041689001 0.033502001 -0.017136 1 0.63369417 -0.69749618 -0.33456069 0
0.039843 0.033801999 -0.019885 1 0.44023174 -0.6185683 -0.65082198 0
0.036513001 0.031132 -0.018612999 1 0.18294415 -0.92145896 -0.34270209 0
0.037377998 0.096795 -0.024356 1 0.34192044 0.75013226 -0.56603181 0
0.043023001 0.09403 -0.024800001 1 0.36595088 0.75714815 -0.54111612 0
0.038577002 0.094189003 -0.028407 1 0.40942925 0.78184438 -0.4701989 0
0.069334 0.069874004 -0.01329 1 0.73745632 -0.40954655 -0.53705662 0
0.070837997 0.074511997 -0.014479 1 0.79373205 -0.2132083 -0.56967682 0
0.068558 0.072389998 -0.01623 1 0.66369689 -0.27594492 -0.69524163 0
0.058729 0.04558 -0.011006 1 0.65792477 -0.60479671 -0.44872695 0
0.062268998 0.047242001 -0.0089990003 1 0.62314904 -0.53589106 -0.56965423 0
0.058752 0.042824998 -0.0072380002 1 0.39976564 -0.51833612 -0.75598621 0
0.034844998 0.032600001 -0.021736 1 0.17073794 -0.67305791 -0.71961206 0
0.067507997 0.063511997 -0.012635 1 0.74733132 -0.10735637 -0.65572137 0
0.064030997 0.058789 -0.015683001 1 0.70651823 -0.19736221 -0.6796177 0
0.063662 0.064056002 -0.017035 1 0.71280223 -0.21941543 -0.66616058 0
0.074429996 0.078005001 -0.009788 1 0.8698042 -0.061463643 -0.48955378 0
0.072362997 0.079915002 -0.01255 1 0.78047913 0.12772165 -0.61199629 0
0.059693001 0.071029998 -0.022431999 1 0.60241115 -0.041074932 -0.79712844 0
0.061524 0.067504004 -0.020778 1 0.65933865 -0.15068218 -0.7365917 0
0.074174002 0.086618997 -0.0077800001 1 0.81698042 0.10240761 -0.56749952 0
0.070899002 0.088454999 -0.012009 1 0.7089259 0.036422249 -0.70434177 0
0.072742 0.090928003 -0.0098489998 1 0.81559426 0.093915589 -0.57095176 0
0.066338003 0.066803999 -0.014435 1 0.74510932 -0.2758711 -0.60721272 0
0.062850997 0.054460999 -0.014647 1 0.68578053 -0.36823156 -0.62778223 0
0.066468 0.055263001 -0.011142 1 0.75002986 -0.40587533 -0.52222651 0
0.053876001 0.059103999 -0.023568001 1 0.62896681 -0.30114996 -0.71673524 0
0.058419999 0.060116999 -0.020419 1 0.61210603 -0.24981946 -0.75027758 0
0.056697998 0.056951001 -0.020698 1 0.60381138 -0.15939544 -0.78102809 0
0.037994001 0.124466 -0.0069499998 1 0.15899323 0.8176176 -0.55337381 0
0.046022002 0.123994 -0.0044669998 1 0.18496233 0.82153416 -0.53932422 0
0.039202999 0.120619 -0.010382 1 0.15339456 0.70673317 -0.69065064 0
0.024682 0.097625002 0.051592 1 0.01083339 0.83758843 0.54619437 0
0.043125998 0.0319 0.039326999 1 0.45390481 -0.815844 0.35828605 0
0.047059 0.033840999 0.037149001 1 0.57480657 -0.74717301 0.33366156 0
0.071584001 0.083968997 -0.011674 1 0.7372815 0.20751081 -0.64292699 0
0.055686001 0.045042001 -0.016225001 1 0.73846728 -0.48826092 -0.46504548 0
0.055218 0.042879 -0.013991 1 0.68676984 -0.66422445 -0.29521701 0
0.039779 0.030811001 -0.014685 1 0.43235898 -0.87354541 -0.22357121 0
0.070248 0.062451001 -0.0092879999 1 0.80634457 -0.17237949 -0.56576836 0
0.068938002 0.058166001 -0.0095699998 1 0.79118598 -0.30528435 -0.52993041 0
0.068933003 0.054384001 -0.0055920002 1 0.81902695 -0.40983748 -0.40153214 0
0.063285001 0.050944 -0.011967 1 0.66368788 -0.51234561 -0.54499573 0
0.053482998 0.040945001 -0.012847 1 0.5213207 -0.82023245 -0.23546433 0
0.054088 0.040183 -0.0085079996 1 0.54700136 -0.74817848 -0.37552422 0
0.066115998 0.050252002 -0.0064249998 1 0.75726527 -0.47247514 -0.45090643 0
0.039632998 0.032600999 0.043001 1 0.32953295 -0.58292896 0.74269909 0
0.045125999 0.031486999 0.033101 1 0.37008223 -0.90803939 0.1962229 0
0.041735001 0.030778 0.036642 1 0.17436589 -0.97569239 0.13274331 0
0.065695003 0.048264001 -0.005258 1 0.62640929 -0.10967815 -0.77173966 0
0.064718999 0.045536 -0.006182 1 0.24533439 0.078754075 -0.96623433 0
0.071364999 0.095353998 -0.010225 1 0.74370152 0.29839507 -0.598221 0
0.069588996 0.093390003 -0.012787 1 0.6545549 0.2260484 -0.72142917 0
0.077391997 0.080571003 0.024537999 1 0.93021059 -0.010306818 0.36688131 0
0.020053999 0.036082 0.047873002 1 0.16007952 -0.41580626 0.89525396 0
0.051513001 0.056441002 -0.025048001 1 0.59772962 -0.13036026 -0.79102802 0
0.047984999 0.031943999 0.02943 1 0.37578556 -0.85926807 0.34704998 0
0.071053997 0.059136 -0.0061599999 1 0.86678123 -0.31914878 -0.38318965 0
0.044635002 0.038355999 -0.020455999 1 0.6611048 -0.5414685 -0.51937675 0
0.081015997 0.052537002 -0.00051099999 1 0.35557088 0.44896889 -0.81975383 0
0.079911001 0.046413999 -0.0028850001 1 0.5992322 -0.088031918 -0.79572052 0
0.077409998 0.049616002 -0.0034650001 1 0.25492758 0.43113053 -0.86552775 0
0.060373999 0.056426 -0.018472999 1 0.61327904 -0.25657234 -0.74703383 0
0.074942 0.100859 0.0038670001 1 0.90722167 0.38863185 -0.16097884 0
0.041745 0.039673001 -0.023066999 1 0.38671565 -0.42292422 -0.81950355 0
-0.015451 0.042973001 0.042493001 1 -0.25520414 -0.89847171 0.35723862 0
-0.016999001 0.042518001 0.040493 1 -0.20072401 -0.97357672 0.10889494 0
0.029092001 0.032140002 -0.020855 1 -0.078891233 -0.9545083 -0.28755894 0
0.076954 0.088481002 0.024276 1 0.95988005 0.12505066 0.25098336 0
0.024235999 0.033693001 -0.023265 1 0.079924233 -0.75681043 -0.6487295 0
0.026883001 0.034497999 -0.023878001 1 0.10510086 -0.50852513 -0.85460865 0
0.025407 0.035107002 -0.014784 1 -0.35330266 -0.5484125 0.75790566 0
0.031128 0.033082001 -0.012649 1 -0.49399829 -0.69076276 0.52802706 0
0.027829001 0.035905 -0.012958 1 -0.3997179 -0.8168484 0.4159137 0
0.070065998 0.053121001 -0.002541 1 0.72212863 -0.13144085 -0.67915648 0
0.078054003 0.079361998 0.022097999 1 0.97074604 -0.038701415 0.2369692 0
0.078497 0.035220001 0.017484 1 0.48916569 -0.86491084 0.11245491 0
0.077058002 0.035431001 0.021201 1 0.47856179 -0.80824864 0.34309289 0
0.044169001 0.042045001 -0.022115 1 0.39905256 -0.53096676 -0.74755019 0
-0.021765999 0.044103999 0.043517999 1 -0.11734521 -0.91756457 0.37987545 0
0.086306997 0.058334 0.017139001 1 0.70689738 0.6693185 0.22871116 0
0.083757997 0.058324002 0.021381 1 0.4516612 0.7090801 0.54148644 0
0.085487001 0.059087001 0.01067 1 0.50252205 0.85120088 -0.15142183 0
0.084664002 0.059861999 0.015224 1 0.46952412 0.88256091 0.025163339 0
0.083723001 0.059781998 0.018678 1 0.35351682 0.89558154 0.27011019 0
0.080407999 0.059753999 0.020679999 1 0.065997049 0.91941893 0.38770241 0
0.081430003 0.060906 0.012699 1 0.26868343 0.962852 -0.02693031 0
0.080417998 0.061023999 0.016167 1 0.15797056 0.97706258 0.1428076 0
0.081506997 0.060275 0.0090650003 1 0.25257173 0.93673474 -0.24235432 0
0.078005999 0.060832001 0.016995 1 0.33109662 0.88369644 0.33084074 0
0.077473998 0.061962001 0.01243 1 0.73954171 0.67256218 -0.027170276 0
0.034873001 0.099077001 0.045626 1 0.21003944 0.92111951 0.32775354 0
0.0050619999 0.129374 0.024313999 1 0.2606355 0.80649441 0.53069377 0
0.028697001 0.127782 0.0013079999 1 -0.0344043 0.95207661 -0.30391869 0
0.069583997 0.106491 0.028685 1 0.76039594 0.44886139 0.46938419 0
0.074644998 0.102451 0.010492 1 0.91921401 0.39350981 -0.013985524 0
0.072714001 0.105506 0.021798 1 0.89324689 0.4265219 0.14208828 0
0.072915003 0.105979 0.017181 1 0.88672775 0.46045429 0.041179657 0
0.072755001 0.102116 -0.0022410001 1 0.8690263 0.38981503 -0.30469257 0
0.066262998 0.108733 0.030867999 1 0.6522494 0.47605768 0.58986408 0
0.066504002 0.111877 0.027308 1 0.70994687 0.577784 0.40266758 0
0.050942 0.093654998 -0.022843 1 0.1329203 0.30827799 -0.94196439 0
0.050446998 0.097356997 -0.021578999 1 0.11902062 0.49705094 -0.85951996 0
0.054981999 0.094075002 -0.022127001 1 0.32939938 0.28854367 -0.89902097 0
0.072394997 0.107292 0.009296 1 0.87701547 0.48039299 -0.0081595406 0
0.070431001 0.109712 0.020822 1 0.83226925 0.54235905 0.11478028 0
0.068856999 0.110803 0.024545999 1 0.78924483 0.54202151 0.2886264 0
0.072263002 0.106953 0.0044459999 1 0.87789559 0.46069729 -0.13060357 0
0.069628999 0.111639 0.012299 1 0.81658882 0.577057 0.013705914 0
0.067293003 0.113912 0.020398 1 0.76266664 0.63217437 0.13673013 0
0.070109002 0.106383 -0.003179 1 0.78806812 0.4920994 -0.369847 0
0.071121998 0.107913 0.001686 1 0.77803487 0.575001 -0.25305259 0
0.069445997 0.111369 0.006112 1 0.78115189 0.60964304 -0.13467416 0
0.064474002 0.115783 0.024874 1 0.68412322 0.65491325 0.32103604 0
0.061765999 0.117345 0.025906 1 0.55927807 0.73963505 0.3743633 0
0.034458 0.097634003 0.049849998 1 0.21648031 0.84725738 0.48506829 0
0.066481002 0.115565 0.0099820001 1 0.72626615 0.68484366 -0.059386101 0
0.065366998 0.11677 0.015518 1 0.72124368 0.6914469 0.041335773 0
0.063129 0.118229 0.021252999 1 0.65396678 0.7347455 0.18021238 0
0.058398999 0.118468 0.028426001 1 0.51491791 0.71055537 0.47955257 0
0.066320002 0.113022 -3.6000001e-05 1 0.72644025 0.61857986 -0.29940531 0
0.065415002 0.115828 0.0048759999 1 0.72294515 0.67016888 -0.168 0
0.061059002 0.12044 0.017787 1 0.61125046 0.78625464 0.090424009 0
0.05903 0.120663 0.022931 1 0.57360995 0.77323216 0.27034009 0
0.062564999 0.117674 0.0011 1 0.66350877 0.69614327 -0.27411777 0
0.01292 0.097268999 0.047359001 1 -0.36865363 0.75198215 0.54645902 0
0.018339001 0.099142998 0.046847999 1 -0.20935306 0.86931318 0.44773412 0
-0.0057950001 0.054419 0.042523999 1 -0.33711421 0.80955732 0.48059449 0
-0.0087400004 0.050852999 0.045423001 1 -0.54057997 0.64677542 0.53801006 0
-0.005134 0.056107 0.039342001 1 -0.22174217 0.86097229 0.45777407 0
-0.001948 0.057261001 0.037636999 1 -0.13674298 0.79233861 0.59455949 0
0.015549 0.096170999 0.051589001 1 -0.28522727 0.7979396 0.53097808 0
0.006263 0.081436001 0.048356 1 -0.85957843 -0.20565018 0.46779585 0
0.0087869996 0.082084 0.053534999 1 -0.76247549 -0.181269 0.62110597 0
0.007524 0.091762997 0.047910001 1 -0.73996401 0.4048568 0.53716308 0
0.0042249998 0.077413999 0.042640999 1 -0.86756915 -0.14592737 0.47542512 0
0.0071649998 0.075753003 0.047681 1 -0.85492957 -0.14519647 0.49800938 0
0.0098430002 0.094008997 0.048852 1 -0.60856873 0.58506197 0.53604722 0
0.012362 0.093419001 0.052280001 1 -0.50337094 0.59596556 0.62565386 0
0.0088759996 0.065148003 0.048211999 1 -0.78860271 -0.045641735 0.6132068 0
-0.012104 0.049713999 0.042987999 1 -0.56866646 0.59953183 0.56318736 0
0.010269 0.089125998 0.053716 1 -0.66247642 0.40582088 0.62963039 0
0.010218 0.077060997 0.052857999 1 -0.7081098 -0.20270227 0.67638177 0
-0.012637 0.047256 0.044296999 1 -0.64128917 0.43412295 0.63268119 0
0.0084039997 0.085215002 0.053420998 1 -0.81700629 0.13030612 0.56171256 0
-0.0093940003 0.047270998 0.048425999 1 -0.64471918 0.4460828 0.62076348 0
-0.0053389999 0.052537002 0.045253001 1 -0.32071906 0.80898124 0.49263448 0
0.010244 0.070276998 0.051564999 1 -0.78862691 -0.14922 0.5964905 0
0.065704003 0.110679 -0.0050329999 1 0.66066712 0.58596838 -0.46921211 0
0.055165999 0.035036001 -0.0046740002 1 0.067863956 -0.59388548 -0.80168241 0
0.058777999 0.032829002 -0.002808 1 0.066089265 -0.67331815 -0.73639315 0
0.055330999 0.090122998 -0.022786001 1 0.32748115 0.24345881 -0.91295344 0
0.059629001 0.090728 -0.020807 1 0.50710773 0.21647725 -0.83425373 0
0.057971999 0.086971 -0.022211 1 0.46624935 0.20063895 -0.86160052 0
0.024483001 0.03331 -0.016608 1 -0.30108103 -0.86951309 0.39153194 0
0.062454998 0.115406 -0.002932 1 0.59634233 0.66999346 -0.44213626 0
0.035179999 0.103963 -0.022459 1 0.25244048 0.19774264 -0.94719154 0
0.035583999 0.107811 -0.021524001 1 0.32611701 0.34376776 -0.8806085 0
0.040787999 0.104488 -0.020606 1 0.22736655 0.25627542 -0.93948251 0
0.032108001 0.031397998 -0.015424 1 -0.27084908 -0.95653456 0.10808474 0
0.028867001 0.032058999 -0.018764 1 -0.21177544 -0.9765321 0.039196588 0
0.041253 0.110074 -0.019794 1 0.070957772 0.39564389 -0.91565877 0
0.053291999 0.037539002 -0.0061860001 1 0.19855089 -0.50883412 -0.83765477 0
0.055666 0.10796 -0.015497 1 0.43485883 0.36861134 -0.82159811 0
0.059925999 0.102473 -0.015081 1 0.43906468 0.33859879 -0.83220977 0
0.055133 0.10387 -0.01702 1 0.38442487 0.25418285 -0.88747317 0
0.049497999 0.122802 -0.0052069998 1 0.32080531 0.81003714 -0.49083993 0
0.050377 0.116471 -0.012938 1 0.32577571 0.66196615 -0.67503411 0
0.046743002 0.113865 -0.016283 1 0.24833226 0.57099909 -0.78249031 0
0.045375001 0.116758 -0.013931 1 0.10517966 0.72588658 -0.67972487 0
0.082111999 0.056882001 0.0031290001 1 0.27543268 0.69331557 -0.66592067 0
0.042695001 0.090806998 -0.029682999 1 0.47582945 0.62008119 -0.62376732 0
0.060943 0.095191002 -0.018314 1 0.46453473 0.37329519 -0.80303067 0
0.064314999 0.089630999 -0.017496999 1 0.63437223 0.18255121 -0.75116372 0
0.046185002 0.120505 -0.0094290003 1 0.13904631 0.77022648 -0.62242854 0
0.053320002 0.113432 -0.013979 1 0.41705269 0.48943606 -0.76584554 0
0.051320001 0.110404 -0.016386 1 0.36347732 0.40071943 -0.84101617 0
0.047369 0.028437 0.011013 1 -0.33905959 -0.93913341 0.055380575 0
0.043527 0.030692 0.0087850001 1 -0.5686425 -0.7741698 0.27804109 0
0.043666001 0.029317999 0.0056440001 1 -0.43029144 -0.8666445 0.25254011 0
0.033087 0.031734001 -0.011263 1 -0.71881306 -0.69445181 -0.032317143 0
0.034458 0.031019 -0.005957 1 -0.23428746 -0.97210181 -0.01128974 0
0.030079 0.032299999 -0.0030119999 1 -0.5440371 -0.80819571 -0.22548439 0
0.068995997 0.082814999 -0.015655 1 0.71584797 0.23585698 -0.65721619 0
0.065926 0.083696999 -0.018204 1 0.60230619 0.19830485 -0.77324152 0
0.046764001 0.110565 -0.018346 1 0.24132626 0.47664782 -0.84532148 0
0.047134001 0.096359 -0.02211 1 0.035519462 0.37613851 -0.9258824 0
0.042789999 0.096312001 -0.022297001 1 0.2407379 0.50174683 -0.83084017 0
0.044027001 0.098091997 -0.021230999 1 0.12497388 0.367677 -0.92151785 0
0.036276001 0.099042997 -0.022857999 1 0.22516078 0.27930164 -0.93343085 0
0.026839999 0.037145998 0.025899 1 -0.37899217 -0.88925076 0.25612122 0
0.028991001 0.037496999 0.033271 1 -0.23707812 -0.96912038 0.067820646 0
0.021111 0.038408 0.025131 1 -0.20124389 -0.97803813 0.054241814 0
0.054995999 0.118621 -0.0068359999 1 0.48526278 0.7065599 -0.51506615 0
0.050859001 0.118703 -0.0098289996 1 0.32941747 0.7485128 -0.57551074 0
0.065646 0.093979999 -0.015768001 1 0.56022102 0.26252067 -0.78564316 0
0.067841001 0.090838999 -0.014621 1 0.63280648 0.077486522 -0.77042311 0
0.065373003 0.107637 -0.008219 1 0.65010053 0.49166101 -0.57934344 0
0.065429002 0.104476 -0.01051 1 0.56001645 0.40603849 -0.72215956 0
0.059889 0.108202 -0.013104 1 0.52917397 0.40258926 -0.74692488 0
-0.023019999 0.043781999 0.03974 1 -0.21340559 -0.97439826 0.070752986 0
0.041781999 0.100632 -0.021515001 1 0.20741653 0.19054054 -0.95951694 0
0.066156 0.100014 -0.012623 1 0.55417132 0.37704608 -0.7421121 0
0.063398004 0.101469 -0.01358 1 0.47201458 0.42235321 -0.77383471 0
-0.010123 0.041540001 0.046957999 1 -0.31883094 -0.93863517 0.13157101 0
0.053847998 0.12184 -0.003185 1 0.45864585 0.76607537 -0.45030269 0
0.027468 0.036499001 -0.003796 1 -0.68998253 -0.63295496 -0.35113007 0
0.025251999 0.034051999 0.002325 1 -0.70854896 -0.61538213 -0.34534499 0
0.022626 0.036745999 0.004772 1 -0.80596185 -0.50552613 -0.3080079 0
0.04967 0.081078 -0.028952001 1 0.48927048 0.03709092 -0.87134302 0
0.047598999 0.086281002 -0.029270001 1 0.53434652 0.33316821 -0.77683508 0
0.050951 0.084518 -0.027127 1 0.56848496 0.30582711 -0.76373726 0
0.056352001 0.113893 -0.011416 1 0.48522055 0.58903366 -0.64622015 0
0.053601 0.085741997 -0.02489 1 0.45030269 0.27578986 -0.84921581 0
0.056000002 0.079833999 -0.024924999 1 0.51206696 0.13532452 -0.84821856 0
0.077693 0.056559999 0.001695 1 0.16599672 0.65842623 -0.73411173 0
0.046502002 0.107845 -0.019554 1 0.29760954 0.25102156 -0.92109543 0
0.033845998 0.116221 -0.015359 1 0.11307763 0.63735425 -0.76222891 0
0.034511998 0.12112 -0.011364 1 0.12342741 0.69106251 -0.71217847 0
0.059746001 0.082096003 -0.022701999 1 0.5107339 0.11753056 -0.8516674 0
0.062942997 0.082984999 -0.020369999 1 0.55363637 0.15932588 -0.81737506 0
0.068626001 0.098886997 -0.011058 1 0.66201395 0.35663888 -0.6592012 0
0.059158001 0.077058002 -0.023151999 1 0.56180197 -0.021352246 -0.82699609 0
0.042291 0.088000998 -0.031643 1 0.45496997 0.265966 -0.84986138 0
0.045600999 0.083526999 -0.030859999 1 0.42309785 0.053703874 -0.90449107 0
0.069104001 0.103193 -0.0081860004 1 0.67466873 0.45352882 -0.58235186 0
0.033224002 0.124346 -0.007791 1 -0.024844544 0.83750629 -0.5458625 0
0.061751001 0.110409 -0.010015 1 0.59018636 0.54932851 -0.59153885 0
0.070038997 0.050381001 -0.003458 1 0.10144088 0.41710669 -0.90317863 0
0.059209999 0.114797 -0.0076799998 1 0.56302202 0.64864647 -0.51211721 0
0.048778001 0.088877998 -0.026427999 1 0.55703026 0.50691152 -0.65784347 0
0.073671997 0.058763001 0.000948 1 0.78819394 -0.052555889 -0.61317873 0
0.038768001 0.030146001 0.002295 1 -0.20323072 -0.97294003 0.10993164 0
0.038143001 0.032170001 0.003663 1 -0.48053813 -0.72042274 0.50007415 0
0.03675 0.031923 0.003888 1 -0.14216471 -0.77967811 0.60982883 0
0.027486 0.037328999 -0.0080829998 1 -0.36658061 -0.93010306 -0.022954136 0
0.02232 0.038068 0.0023970001 1 -0.31253004 -0.94662255 -0.078934133 0
0.055507999 0.100069 -0.017728999 1 0.34555453 0.34530357 -0.87255806 0
0.056116 0.097622 -0.019332999 1 0.32744509 0.60767674 -0.72353899 0
0.05418 0.096450999 -0.021488 1 0.34970108 0.50817436 -0.78706288 0
0.073913999 0.053461999 -0.001217 1 0.20208178 0.52421522 -0.82726133 0
0.018982001 0.039522 0.036702 1 -0.18670967 -0.98007739 0.067732781 0
0.037106998 0.110078 -0.019659 1 0.10092127 0.41629657 -0.90361059 0
0.075235002 0.058481 0.0030139999 1 0.5904395 0.31032109 -0.74503821 0
0.073136002 0.048156001 -0.0047769998 1 0.0780169 0.44260418 -0.89331681 0
0.034173001 0.111466 -0.019613 1 0.23296998 0.51970088 -0.82197076 0
0.030277001 0.125441 -0.0052009998 1 -0.078667767 0.91084689 -0.40517804 0
0.063956 0.036210001 -0.0045269998 1 0.15819575 -0.61444163 -0.77293962 0
0.029573999 0.121977 -0.0097120004 1 -0.15537682 0.75549561 -0.63646239 0
0.022701999 0.034722 0.0082609998 1 -0.70433432 -0.70018727 -0.11683747 0
0.049920999 0.099721998 -0.019916 1 0.23538676 0.32264045 -0.91678572 0
0.026133001 0.12572201 -0.0036500001 1 -0.06857916 0.93335795 -0.35233492 0
0.042401001 0.106151 -0.020204 1 0.076949291 0.11471653 -0.99041355 0
0.034251001 0.032986 0.044652 1 0.055676669 -0.68192273 0.72930211 0
0.076669998 0.046179 -0.004621 1 0.31481379 0.05196866 -0.94772971 0
0.048347 0.104609 -0.019472999 1 0.25035989 0.1777878 -0.95168871 0
0.055659998 0.073394001 -0.025450001 1 0.5156495 -0.012513906 -0.85670829 0
0.073201999 0.041659001 -0.0051299999 1 0.40122139 -0.27185348 -0.87470973 0
0.070244998 0.042658001 -0.006333 1 0.19042802 -0.069223545 -0.97925752 0
0.070641004 0.045155998 -0.0060359999 1 0.071712598 0.28242114 -0.95660633 0
0.068798997 0.039767999 -0.0059839999 1 0.18914324 -0.38336304 -0.90402293 0
0.049716 0.052429002 -0.026014 1 0.46653134 -0.099082105 -0.87893766 0
0.061576001 0.038460001 -0.0061059999 1 0.057667185 -0.34591109 -0.93649358 0
0.064228997 0.042328998 -0.006691 1 0.05381462 -0.058452185 -0.99683869 0
0.058674999 0.040484998 -0.0063900002 1 0.051171429 -0.21955372 -0.97425741 0
0.036889002 0.035650998 -0.022496 1 0.18186064 -0.35837001 -0.91569513 0
0.052018002 0.060720999 -0.026298 1 0.55253142 -0.24225986 -0.79750812 0
0.052494999 0.066358 -0.026900001 1 0.4665468 -0.049271785 -0.8831231 0
0.046193 0.045883998 -0.024894999 1 0.34906256 -0.55703527 -0.7535696 0
