ply
format ascii 1.0
comment PCL generated
element vertex 636
property float x
property float y
property float z
property float intensity
property float nx
property float ny
property float nz
property float curvature
element camera 0
property float view_px
property float view_py
property float view_pz
property float x_axisx
property float x_axisy
property float x_axisz
property float y_axisx
property float y_axisy
property float y_axisz
property float z_axisx
property float z_axisy
property float z_axisz
property float focal
property float scalex
property float scaley
property float centerx
property float centery
property int viewportx
property int viewporty
property float k1
property float k2
end_header
0.041618686 0.092518784 -0.0074708499 1 0.82626212 0.29933336 -0.47716928 0
0.04129494 0.097637996 -0.0039776806 1 0.86149138 0.30796549 -0.40371978 0
0.0079003815 0.13157263 0.011755606 1 0.13773397 0.99003494 -0.02933128 0
0.0060739852 0.13149568 0.016896868 1 0.047504615 0.99421829 0.096297719 0
0.0085817873 0.13101843 0.0063463524 1 0.16436186 0.97511792 -0.14876214 0
0.043193713 0.09782891 0.0010242864 1 0.91159803 0.29865149 -0.28248259 0
0.041434254 0.10374489 0.0026863387 1 0.86869633 0.4507986 -0.20529777 0
0.043396417 0.099617951 0.0050167758 1 0.93671745 0.33250791 -0.10953929 0
0.050519764 0.05293737 -0.0035088258 1 0.57150131 -0.36111233 -0.73687458 0
0.053057589 0.052045692 -0.00071513781 1 0.68524933 -0.41528583 -0.59830695 0
0.051639989 0.048628207 0.00093944173 1 0.60975868 -0.58534014 -0.5343886 0
0.0039456598 0.11244182 0.041530825 1 0.18212339 0.33775926 0.92344457 0
0.0068283658 0.11677982 0.038759738 1 0.19758438 0.46585962 0.86251682 0
0.00098570064 0.11637024 0.040212221 1 0.08143159 0.49880299 0.8628816 0
0.046146628 0.048289008 -0.0039720247 1 0.47388747 -0.57656735 -0.66558307 0
0.04092636 0.10567143 0.0075212577 1 0.86682254 0.49656296 -0.045209311 0
0.043057371 0.10106004 0.0094797025 1 0.93003315 0.36556146 0.037458297 0
0.054751039 0.056193259 -0.00074833602 1 0.75906467 -0.24977233 -0.60119444 0
-0.016108012 0.12851912 0.016755892 1 -0.25667876 0.96256024 0.087143138 0
0.0037872717 0.1308444 0.021241097 1 0.011054833 0.97948122 0.20123188 0
0.0015923809 0.05231519 0.05306685 1 0.21112242 -0.25225025 0.94435012 0
0.0022818614 0.050119244 0.052203368 1 0.078572661 -0.57658011 0.81325382 0
0.0038431045 0.053212333 0.053342123 1 0.15303452 -0.24135529 0.95829427 0
0.049786806 0.043931525 0.014473619 1 0.55971235 -0.82834738 0.023723334 0
0.042931564 0.040099695 0.0088165672 1 0.45711011 -0.8882373 -0.045660183 0
0.046903729 0.042594261 0.0064536035 1 0.54177254 -0.82581174 -0.15658139 0
0.057505615 0.060089421 0.0018097411 1 0.81123537 -0.088723652 -0.57794917 0
0.05762434 0.056152556 0.0039379592 1 0.87144375 -0.29295459 -0.39339983 0
0.045147214 0.081083491 0.00057584705 1 0.95894903 0.012045923 -0.28332269 0
0.04569561 0.087086596 0.0038635656 1 0.98435634 0.052046388 -0.16832568 0
0.046443317 0.07750269 0.0068715154 1 0.99400938 0.048922077 -0.097734049 0
-0.0064265337 0.090415902 0.05687473 1 0.017864669 0.15481359 0.98778224 0
-0.0010484792 0.089097098 0.05654294 1 0.098123245 0.22915649 0.96843135 0
-0.0054291999 0.093238182 0.055894066 1 0.043412223 0.40934837 0.91134483 0
0.0096024368 0.090343095 0.054205045 1 0.23612233 0.42374566 0.8744632 0
0.01360552 0.093095891 0.051463582 1 0.31273583 0.49777654 0.80895907 0
0.0097005572 0.09550532 0.050912194 1 0.25567523 0.58243513 0.77162135 0
0.0066707116 0.060308423 0.054712489 1 0.3233977 -0.32308728 0.8893978 0
0.0028752349 0.062706314 0.056463055 1 0.055395558 -0.14534748 0.98782867 0
0.0034623425 0.059837658 0.05539627 1 0.094472446 -0.45608857 0.88490576 0
0.047026999 0.074476242 0.010090427 1 0.93615824 0.33776429 -0.097585969 0
0.046472494 0.078815319 0.014746113 1 0.99482924 0.094885275 0.036215182 0
-0.00062164851 0.1283509 -0.0031808943 1 -0.0025568868 0.91548365 -0.40234721 0
0.0044837557 0.12788814 0.028713131 1 0.046018362 0.84960854 0.52540249 0
0.00059459265 0.044960365 0.046423558 1 0.045457207 -0.5533812 0.83168674 0
-0.00041735079 0.047211602 0.049045227 1 -0.078258574 -0.73041832 0.67850184 0
-0.0067834817 0.046435554 0.047394097 1 -0.073642537 -0.62165731 0.77981991 0
0.0075163096 0.12103146 0.036024962 1 0.067233987 0.59450805 0.80127388 0
0.0062111542 0.1249993 0.032713063 1 0.054803025 0.74233609 0.66778255 0
0.0036569126 0.12007171 0.036962923 1 0.085956924 0.61089593 0.78703094 0
0.044900395 0.094920419 0.012017199 1 0.9762252 0.21110417 0.049186129 0
0.045315474 0.093760565 0.0062238094 1 0.97812653 0.20257339 -0.047250159 0
0.046105158 0.087161362 0.0084006311 1 0.99680579 0.079438172 -0.0082327453 0
0.012479868 0.12915893 0.0014008177 1 0.27390286 0.92176419 -0.27445975 0
-0.014712988 0.038693797 0.029272553 1 0.024400568 -0.99789989 0.060001761 0
-0.017940199 0.039350342 0.039299574 1 0.025826095 -0.99687701 0.074627578 0
-0.020596467 0.038451206 0.02776337 1 0.020312697 -0.99802142 0.059504464 0
0.0082869958 0.051592786 0.051688947 1 0.32920954 -0.4192422 0.84608334 0
0.009440463 0.044157363 0.044957019 1 0.18663454 -0.40690798 0.89419985 0
0.0062029809 0.046711907 0.048979782 1 0.1197759 -0.70571631 0.69829679 0
0.0051490981 0.042012315 0.045619741 1 0.16830727 0.030197775 0.98527193 0
0.060979612 0.061777141 0.010387318 1 0.9912861 -0.060106315 -0.11721342 0
0.060034037 0.066556185 0.0084469439 1 0.95275688 0.1746264 -0.24851532 0
0.060275681 0.068256535 0.011391249 1 0.93064427 0.33788919 -0.14047112 0
0.055462569 0.05155696 0.0031103757 1 0.78294134 -0.44729096 -0.43235826 0
0.017017961 0.10341161 0.045302149 1 0.20822133 0.59803021 0.77395326 0
0.020840943 0.10421059 0.043020878 1 0.38524055 0.58512819 0.71359283 0
0.015187267 0.10731153 0.041835234 1 0.089140557 0.5998283 0.79514778 0
0.0037044175 0.086346135 0.057032473 1 0.12343139 0.23905762 0.96312827 0
0.0049920548 0.09166576 0.054709669 1 0.2235128 0.38902855 0.89369959 0
0.0080286842 0.055067301 0.052671853 1 0.24037459 -0.14934088 0.95912325 0
0.0054104421 0.057031523 0.053350307 1 0.20978835 -0.25379008 0.94423485 0
0.044388164 0.085348979 -0.002143583 1 0.95132929 -0.038071577 -0.30581552 0
0.044816472 0.084317632 0.00079829537 1 0.97463673 0.032249324 -0.22145706 0
0.042292483 0.08168608 -0.0067023495 1 0.89240557 -0.100732 -0.43984711 0
-0.023342986 0.12680091 0.011067091 1 -0.25702068 0.96640152 0.0029152231 0
-0.030604511 0.12570709 0.016664548 1 0.126323 0.89948177 0.41830009 0
0.013840165 0.12978315 0.0070007592 1 0.33343863 0.93867081 -0.08784011 0
0.019483931 0.12748723 0.011357998 1 0.46495101 0.88481647 -0.030335288 0
0.019426096 0.12701038 0.0056160591 1 0.45379737 0.88036108 -0.13795768 0
0.043453123 0.075959459 -0.0039288881 1 0.91202462 -0.036726955 -0.40848783 0
0.04581159 0.074820742 0.0025593597 1 0.94132537 0.073817186 -0.32932875 0
-0.00022797845 0.058351606 0.054413151 1 -0.013419312 -0.26503342 0.9641459 0
-0.000644424 0.060599808 0.05575968 1 -0.054674659 -0.39310703 0.91786575 0
-0.004097186 0.061423276 0.055625066 1 -0.059540998 -0.27688998 0.95905513 0
0.0098372288 0.10111643 0.047385216 1 -0.10450799 0.53590286 0.8377865 0
0.0053304657 0.10166835 0.045437295 1 -0.13225757 0.69471657 0.70701969 0
0.0073823221 0.098883815 0.048428357 1 0.12192587 0.64402235 0.75522798 0
0.0043974686 0.072922401 0.056256857 1 0.17910005 -0.089786381 0.9797253 0
0.007900482 0.072385892 0.056018028 1 0.24068497 -0.092437029 0.96619159 0
0.0057697725 0.076405428 0.05629142 1 0.17931713 0.035911679 0.98313564 0
-0.0044132257 0.057767007 0.053920921 1 -0.074665338 -0.31485277 0.94619918 0
-0.0040954174 0.054474533 0.053831365 1 -0.24036212 -0.22581707 0.94405121 0
0.043526709 0.052222416 0.032400377 1 0.092507318 -0.10701042 0.98994499 0
0.043997109 0.048883397 0.031244686 1 0.38546115 -0.51312101 0.76689422 0
0.047946088 0.052833676 0.030705605 1 0.5129711 -0.33844858 0.78886837 0
-0.0012851637 0.055932473 0.054556616 1 -0.17762174 0.029574458 0.98365438 0
0.034198247 0.11362582 0.024626456 1 0.7814483 0.56428653 0.26630652 0
0.033549976 0.11235886 0.027817108 1 0.72494566 0.47543252 0.49841517 0
0.03773139 0.10693846 0.026320498 1 0.811746 0.41885498 0.4069753 0
0.038709845 0.048137225 0.031638384 1 -0.0043339622 -0.34703723 0.93784136 0
0.03820454 0.049868051 0.031806909 1 -0.13446088 0.0028004975 0.990915 0
0.035726592 0.050524469 0.03134675 1 0.018409284 -0.10220505 0.99459302 0
-0.02037058 0.119835 0.03305975 1 -0.31928399 0.71003342 0.62762266 0
0.025666483 0.039622132 -0.0041375915 1 0.3158572 -0.65161967 -0.68965656 0
0.029219635 0.037491001 -0.00039256824 1 0.21662059 -0.81123006 -0.54312181 0
0.022404209 0.036908239 -0.0022092173 1 0.35585293 -0.82559562 -0.43790495 0
0.0098997261 0.105271 0.043624382 1 -0.15310258 0.69500917 0.70251101 0
0.0078376234 0.08643721 0.056101736 1 0.29902229 0.17272325 0.93848401 0
-2.8632581e-05 0.054544736 0.054563604 1 0.12115052 -0.23139909 0.96528596 0
-0.0036467081 0.084789447 0.057181027 1 0.0088452743 0.11430421 0.99340636 0
0.042519134 0.059178386 0.030770309 1 -0.1353402 0.41773105 0.8984341 0
0.04084076 0.061655317 0.029768558 1 0.69970113 -0.016040692 0.71425551 0
0.038893424 0.056527864 0.031106884 1 0.29395461 -0.018672656 0.95563698 0
0.0044349544 0.10527199 0.042585589 1 0.045078516 0.40504333 0.91318548 0
0.010847051 0.046742439 0.046376813 1 0.44763163 -0.54333007 0.71022427 0
-0.031784687 0.12524424 0.019469904 1 0.38416579 0.81434631 0.4350366 0
0.0055002309 0.068015933 0.055617943 1 0.17870367 -0.055274166 0.98234922 0
0.0054659564 0.10947372 0.041704644 1 0.26648748 0.19123057 0.94467735 0
0.0013565104 0.10935802 0.042693321 1 0.17391399 0.1904756 0.96616399 0
0.01216224 0.10406974 0.04541352 1 0.0047910996 0.65865135 0.75243306 0
-0.0024685487 0.05125716 0.053103663 1 -0.1158588 -0.57306886 0.81127602 0
0.0025962461 0.10019275 0.046949986 1 -0.00068948319 0.89795327 0.44009042 0
9.8296441e-05 0.076883681 0.058157619 1 0.19977313 0.12314323 0.97207332 0
-0.0018576644 0.080999322 0.057529163 1 0.086288691 0.09783943 0.99145436 0
-0.0057394411 0.079036959 0.057942148 1 -0.016956387 0.096317239 0.9952063 0
0.060796276 0.061796512 0.015515408 1 0.98331994 -0.11066417 0.14434463 0
0.060927384 0.065929919 0.013906523 1 0.99427879 0.10145006 0.033430818 0
0.060294211 0.065806575 0.018464429 1 0.96251011 0.10305812 0.25090492 0
-0.036281332 0.12204041 0.027734594 1 0.15569757 0.78375506 0.6012373 0
-0.030594798 0.11600763 0.03290946 1 -0.056046993 0.67725194 0.73361331 0
0.045844272 0.05748187 0.031910229 1 0.075643487 0.20746318 0.97531378 0
0.040984545 0.054633271 0.031928688 1 -0.14955722 0.16279268 0.97525954 0
0.021634288 0.091388486 0.048033442 1 0.28976911 0.20689493 0.93446678 0
0.020827945 0.096637107 0.046971962 1 0.22995973 0.25265744 0.9398312 0
0.017161369 0.097139634 0.047443759 1 0.27580613 0.26664421 0.92348897 0
0.037464838 0.037617944 0.014696893 1 0.40271753 -0.90944642 0.10356581 0
0.035820208 0.03664415 0.009695326 1 0.35890001 -0.93258351 -0.038456876 0
-0.007588163 0.050180167 0.050904661 1 -0.17962901 -0.5889492 0.78795457 0
0.013432508 0.096765257 0.048752844 1 0.20706671 0.47081274 0.85758895 0
0.013673313 0.10079394 0.047464732 1 0.16603829 0.37394705 0.91246641 0
0.0463886 0.061992999 0.030150004 1 -0.13650039 0.51371229 0.84703439 0
0.046288095 0.066562705 0.026745025 1 -0.12309662 0.62014467 0.77476943 0
0.021120608 0.086341389 0.049413607 1 0.33880642 0.23784742 0.91029608 0
0.018061087 0.090929501 0.04870332 1 0.37785837 0.26769888 0.88631845 0
0.043117315 0.066794954 0.026932182 1 0.57239145 0.23927984 0.78429151 0
0.043225605 0.06388139 0.027970418 1 0.097012304 0.44180092 0.89185238 0
0.045918278 0.069584548 0.023491057 1 0.16508651 0.76226836 0.62585413 0
0.053194858 0.047883663 0.0049396395 1 0.67059815 -0.7065748 -0.22594288 0
0.057113431 0.051712267 0.0071583255 1 0.8539753 -0.46161166 -0.2400851 0
0.056937933 0.050642915 0.010529263 1 0.81192595 -0.5770514 -0.088250093 0
0.020505197 0.10045712 0.045769561 1 0.33984035 0.41167071 0.84559786 0
-0.00831935 0.060161155 0.055244509 1 -0.15523976 -0.28410092 0.94614339 0
-0.012410225 0.061637435 0.054363314 1 -0.38238999 -0.22495086 0.89620036 0
-0.011776131 0.057498977 0.052683014 1 -0.36982924 -0.35076231 0.86034429 0
-0.02872864 0.039281156 0.053207848 1 -0.40909797 0.086254567 0.90840465 0
-0.029525375 0.036535814 0.052386608 1 -0.54695374 -0.37983507 0.74603409 0
-0.0055415761 0.065491304 0.056118403 1 -0.12137873 -0.09451025 0.98809671 0
9.3368813e-05 0.069292516 0.056531653 1 0.11802054 -0.16296595 0.9795475 0
-0.0047956435 0.069656454 0.056846447 1 -0.10322703 -0.30544037 0.94659942 0
0.020312905 0.10737596 0.040346228 1 0.30645254 0.51433647 0.80096501 0
0.019836899 0.11241535 0.03757726 1 0.28708777 0.4644199 0.83779162 0
0.015312685 0.11576664 0.037071861 1 0.21312192 0.45858347 0.86271685 0
0.03939607 0.10679031 0.020466827 1 0.87965077 0.44190538 0.17588088 0
0.037351821 0.11074346 0.018836068 1 0.82937276 0.55058038 0.094878934 0
0.0029390119 0.079112008 0.056689382 1 0.24867487 -0.020200035 0.96837634 0
0.0091220234 0.10714623 0.041267246 1 0.0060431347 0.49627534 0.86814409 0
-0.048806645 0.086221598 0.045347787 1 0.19765857 -0.03736221 0.97955871 0
-0.05342254 0.085343882 0.045327075 1 -0.023561832 -0.039263953 0.99895108 0
-0.049829725 0.081312299 0.044250336 1 0.17676581 -0.22227409 0.95882636 0
-0.050179154 0.08884418 0.045189258 1 -0.0083380062 0.15574238 0.98776239 0
-0.052744068 0.09091267 0.044574898 1 -0.030376129 0.17347687 0.98436946 0
-0.048617572 0.091085576 0.044462331 1 0.1934372 0.11083463 0.97483218 0
-0.051712304 0.095458917 0.043952633 1 -0.067715183 0.14430125 0.98721415 0
0.013158876 0.1137116 0.038339291 1 0.089010455 0.39979568 0.91227227 0
7.0878305e-05 0.093208045 0.055396795 1 0.16298486 0.36640319 0.91607022 0
-0.0019658888 0.11146466 0.042472206 1 0.0090625854 0.36591661 0.9306035 0
0.059321702 0.063235283 0.021488581 1 0.93098754 -0.010691901 0.36489436 0
0.046869803 0.054798532 0.031889718 1 0.36167836 -0.077242658 0.92909753 0
-0.048429951 0.096454553 0.044198874 1 0.1155673 0.20849836 0.97117072 0
-0.051809639 0.099710718 0.042740028 1 -0.078065433 0.33901325 0.93753701 0
-0.04740439 0.10081869 0.042373244 1 0.042315811 0.29332781 0.95507497 0
0.035053156 0.043231811 0.028846517 1 0.07675685 -0.55015653 0.83152652 0
0.032647442 0.045408688 0.030214343 1 0.28379488 -0.46457922 0.83882457 0
-0.0027885446 0.072186135 0.058124993 1 0.083295941 -0.29619056 0.95148987 0
-0.0061678775 0.072182454 0.057931732 1 -0.21334885 -0.30386579 0.92851919 0
-0.0033247257 0.042680588 0.047441933 1 0.27455425 0.1937838 0.94184279 0
-0.0062990878 0.04505492 0.047408268 1 0.25103423 0.30689007 0.91804159 0
-0.014760784 0.042577852 0.051307261 1 0.3116594 0.1399952 0.93982434 0
-0.047202252 0.075555339 0.042604398 1 0.10921767 -0.23012003 0.96701413 0
-0.050546356 0.076151446 0.043114316 1 0.089624569 -0.30754957 0.94730186 0
-0.0492949 0.073442377 0.041644696 1 0.053976577 -0.45676228 0.88794976 0
-0.045180276 0.082389675 0.043269426 1 0.27769157 -0.1734928 0.94487441 0
-0.045486204 0.084991343 0.044152629 1 0.33593515 -0.1632825 0.92762405 0
-0.044325639 0.094866715 0.04298383 1 0.27708602 0.085184596 0.95706165 0
-0.045221251 0.091007777 0.043257426 1 0.31491071 0.068314284 0.94665968 0
0.0093175806 0.048497867 0.049261615 1 0.4385272 -0.54836452 0.7120325 0
-0.049741674 0.043103326 0.044374 1 0.25332731 0.39637244 0.8824479 0
-0.044372931 0.043805536 0.042596191 1 0.1702026 0.50710011 0.84491456 0
-0.048970938 0.046419282 0.041087359 1 0.13629289 0.66411418 0.73510319 0
-0.044240892 0.087661222 0.043475613 1 0.35666928 0.13115089 0.92497909 0
-0.047314879 0.10636771 0.040201161 1 -0.12931877 0.39712611 0.90860754 0
-0.049003936 0.1045296 0.040332906 1 -0.3126772 0.35059908 0.88278723 0
0.00021083094 0.10449745 0.043796998 1 0.10972236 0.13686568 0.98449421 0
-0.043471184 0.047167618 0.04020362 1 0.021731293 0.43672407 0.899333 0
-0.047164958 0.048469834 0.039047997 1 -0.027441353 0.53412902 0.84495747 0
-0.043859512 0.051072851 0.038903397 1 -0.18664618 0.064397313 0.98031437 0
0.03404896 0.078826979 -0.017669188 1 0.70776761 -0.13564582 -0.69330031 0
0.030913483 0.082142241 -0.020069966 1 0.58340478 0.029688032 -0.81163871 0
0.03392956 0.08381547 -0.01865733 1 0.5445829 -0.028074315 -0.83823699 0
-0.044787444 0.071585141 0.041895043 1 -0.13877378 -0.21257263 0.96724075 0
-0.04485793 0.078804158 0.042321291 1 0.059348904 -0.089869387 0.99418372 0
-0.043804757 0.099432789 0.04240372 1 0.15141636 0.16202793 0.97509998 0
-0.044059314 0.1043275 0.041370422 1 0.13300914 0.34087721 0.93065101 0
-0.045786723 0.10906474 0.038794138 1 0.06189597 0.52558535 0.84848624 0
-0.042541515 0.0770033 0.042780228 1 -0.082767658 -0.05744813 0.99491161 0
0.053010471 0.046665043 0.010323289 1 0.65434754 -0.75293314 -0.070149437 0
0.048714861 0.06186508 0.030273238 1 0.16644235 0.32896024 0.92956012 0
-0.046346448 0.067663923 0.039594654 1 -0.34338045 -0.26186186 0.90195239 0
-0.041776549 0.069640681 0.041786548 1 -0.14509232 -0.14927895 0.97809207 0
-0.041799426 0.081093021 0.042440128 1 -0.069542274 -0.031082531 0.99709469 0
-0.042143472 0.10738814 0.039492026 1 0.21748123 0.42719197 0.87761551 0
-0.04131303 0.1122701 0.035918459 1 0.097657718 0.5844596 0.80552465 0
0.0071624219 0.064710781 0.055540062 1 0.27221963 -0.035184041 0.9615916 0
0.00046231411 0.065745965 0.056513578 1 0.068476334 0.01882248 0.99747515 0
-0.041669361 0.056178112 0.039731983 1 -0.16909477 -0.13843666 0.97582901 0
-0.04428193 0.061091702 0.039490242 1 -0.38082176 -0.11047994 0.91802448 0
-0.041862614 0.086720921 0.042530235 1 0.076856948 0.022582224 0.99678636 0
-0.041274481 0.098555543 0.041797429 1 0.027628558 0.1644071 0.98600554 0
-0.00076480582 0.10143932 0.044305183 1 -0.044936404 0.5393461 0.84088433 0
-0.041027561 0.043109518 0.042039085 1 0.25753972 0.29377678 0.92052627 0
-0.038770705 0.058011118 0.040088955 1 0.20650445 -0.16435947 0.96454227 0
-0.038979433 0.063088246 0.041331008 1 0.077225938 -0.16838709 0.98269111 0
-0.039319951 0.078137435 0.042896751 1 0.017247234 -0.12050554 0.99256283 0
-0.0037150206 0.105689 0.044071212 1 0.0080396561 0.18621659 0.98247588 0
-0.0092122983 0.10745347 0.043483902 1 -0.068037234 0.20578359 0.97622961 0
-0.0076213796 0.10519111 0.043849092 1 -0.10139036 0.015214503 0.99473041 0
-0.038718194 0.046379309 0.040280018 1 0.0098408405 0.30691779 0.95168513 0
-0.037931446 0.050617315 0.039225191 1 0.094433561 0.058872048 0.9937889 0
-0.038137935 0.068856813 0.041805197 1 0.055647541 -0.0653565 0.99630904 0
-0.039162438 0.083639354 0.043490566 1 -0.16563763 -0.033913735 0.98560339 0
-0.039238054 0.089607164 0.043178342 1 -0.25132638 0.054750636 0.96635258 0
-0.039553475 0.10216805 0.040599171 1 -0.014949983 0.38443273 0.92303199 0
-0.03645806 0.075099945 0.041978132 1 0.1468645 -0.11427449 0.98253351 0
-0.036110539 0.09570609 0.043591678 1 -0.22838077 0.18664449 0.95551348 0
-0.038797311 0.10684916 0.038282223 1 0.1871646 0.40086487 0.89681476 0
-0.035276562 0.11247494 0.035099529 1 0.012711647 0.54501373 0.83833069 0
-0.037874751 0.1153001 0.033229668 1 0.07736481 0.5815708 0.80980861 0
-0.040167883 0.11672585 0.032513984 1 0.043639187 0.62334824 0.78072566 0
-0.036136098 0.11880445 0.03073119 1 -0.022984032 0.64648741 0.76257843 0
-0.040482536 0.12270671 0.026355831 1 -0.07129322 0.73191619 0.6776548 0
-0.042741206 0.11839174 0.030702833 1 -0.047689777 0.71532285 0.69716489 0
-0.0030220347 0.1191641 0.038400609 1 -0.014102834 0.56699854 0.82359803 0
0.00020285789 0.12320462 0.034807853 1 0.025081942 0.70776355 0.70600402 0
-0.0062571233 0.12205285 0.035798009 1 -0.10583957 0.65860677 0.74500668 0
-0.038961761 0.042419977 0.041383266 1 -0.28421274 0.35149017 0.89200771 0
0.05975654 0.063236505 0.0058734561 1 0.93190044 0.11597399 -0.34367368 0
0.059731968 0.060643297 0.0057613496 1 0.92185235 -0.16631976 -0.35003725 0
-0.035014633 0.06857489 0.041338954 1 0.27085242 -0.12245651 0.95480019 0
-0.03630805 0.081162952 0.043145053 1 0.20768951 -0.13854672 0.96833354 0
-0.03655136 0.08609394 0.043605831 1 0.10900208 0.00071761571 0.99404126 0
-0.036552928 0.088897191 0.043310352 1 -0.027201457 -0.14522243 0.989025 0
-0.035451327 0.092626557 0.044243466 1 -0.14339763 -0.047801454 0.98851007 0
-0.035744477 0.099822305 0.042355709 1 -0.18967374 0.40977266 0.89225018 0
-0.036044076 0.10636223 0.038677659 1 -0.14634478 0.49036193 0.85914403 0
0.00022652838 0.073498636 0.057656921 1 0.30357265 -0.13471909 0.94323617 0
0.041593157 0.10294905 0.016587762 1 0.91153777 0.3939521 0.11790052 0
0.04372957 0.097495005 0.017312543 1 0.93918598 0.31234348 0.14272748 0
0.020181082 0.034975391 -0.0020185362 1 0.23416166 -0.96616155 -0.10816776 0
0.020626951 0.035703465 -0.0039002032 1 0.71303403 -0.65790749 -0.24236354 0
-0.035935842 0.046520956 0.04065568 1 -0.41343427 0.57413089 0.70671487 0
-0.034090471 0.050541665 0.038208198 1 0.086513825 0.38766685 0.91773087 0
-0.034175154 0.054117758 0.037989262 1 0.33870897 -0.11840364 0.93341142 0
-0.034241557 0.060799252 0.039486453 1 0.32963419 -0.19736411 0.92324901 0
-0.03286482 0.07667169 0.04125144 1 0.20208186 -0.13684911 0.96976048 0
-0.031981193 0.10898848 0.038139936 1 -0.17004083 0.54078937 0.82379198 0
0.0099820588 0.11008255 0.039974842 1 0.27597371 0.23844452 0.93111914 0
0.0085649155 0.11340459 0.039829701 1 0.28454912 0.28242964 0.91611427 0
-0.0030452078 0.075709969 0.058679998 1 -0.034435529 -0.0022907609 0.99940431 0
-0.034827195 0.082899719 0.04289915 1 0.33872697 -0.12177196 0.93297148 0
-0.032864459 0.08619976 0.042552222 1 -0.055450018 -0.21409404 0.97523785 0
-0.033046685 0.088585265 0.043693967 1 -0.1422741 -0.22894435 0.96298623 0
-0.033398606 0.10385595 0.040765136 1 -0.19061966 0.47370854 0.85980493 0
-0.032486118 0.067748733 0.040079765 1 0.35767651 -0.15760002 0.92045081 0
-0.033048265 0.082282692 0.041836541 1 0.20912234 -0.13647015 0.96832007 0
-0.0086773075 0.095404379 0.054451052 1 -0.079596274 0.63401473 0.76921374 0
-0.0056725936 0.097358748 0.052752241 1 -0.061856553 0.80779636 0.58620715 0
-0.031643387 0.090734549 0.044173893 1 -0.052617535 -0.15888919 0.98589319 0
-0.007267795 0.11696908 0.039331216 1 -0.10220082 0.52073991 0.84757602 0
-0.0073727057 0.11186687 0.042077195 1 -0.073789373 0.39721373 0.91475475 0
-0.030405223 0.054439779 0.036623068 1 0.17467609 -0.01338797 0.98453498 0
-0.030066106 0.062499281 0.037926875 1 0.31297222 -0.18976362 0.93061173 0
-0.029052155 0.094301239 0.044828355 1 -0.061073959 0.020815941 0.99791616 0
-0.030679882 0.096925646 0.044663887 1 -0.10686174 0.27933544 0.95422864 0
-0.030604491 0.080084831 0.041777667 1 -0.64527047 -0.23322886 0.72748214 0
-0.028966414 0.1019903 0.042655487 1 -0.1537288 0.44119301 0.88414723 0
0.052530192 0.064417042 0.028212421 1 0.29592064 0.41621652 0.8597644 0
0.050601117 0.067383729 0.026787693 1 0.044047475 0.63684696 0.76973093 0
0.021831278 0.037794903 -0.004817348 1 0.70441067 -0.60809714 -0.36609212 0
-0.029042272 0.069574602 0.039327599 1 0.020543877 -0.23094581 0.97274977 0
-0.029056646 0.075188123 0.041155674 1 -0.41213769 -0.29188979 0.86310071 0
-0.02978776 0.085415207 0.043734998 1 -0.7450906 -0.066177301 0.66367209 0
-0.02904998 0.090465285 0.04423679 1 -0.45665509 0.053082578 0.88805884 0
-0.02815415 0.097796932 0.043775044 1 0.0051214779 0.21982208 0.97552651 0
0.045783725 0.088268057 0.013102893 1 0.99208617 0.10778664 0.064396366 0
0.044820681 0.092899896 0.017820245 1 0.98238063 0.15521054 0.10410549 0
0.034468606 0.052002333 0.032667942 1 0.66366476 -0.4178898 0.62041694 0
-0.0066976557 0.084433146 0.057151999 1 0.069947906 0.097353727 0.99278873 0
-0.027339248 0.079972379 0.04767574 1 -0.86462909 -0.21386112 0.45462063 0
-0.027199896 0.084112436 0.048732869 1 -0.87480706 0.055459965 0.48128662 0
0.057942644 0.064300962 0.002556948 1 0.81688726 0.14167379 -0.55912757 0
0.058568619 0.068205997 0.0056615132 1 0.8423031 0.40148097 -0.35963657 0
0.010938054 0.13088612 0.014412588 1 0.26169601 0.96436042 0.03903963 0
-0.027794277 0.061102089 0.037412621 1 -0.40359685 -0.15909854 0.90099794 0
-0.027843349 0.05457909 0.036715776 1 -0.5270471 0.10843685 0.84288949 0
0.040370192 0.10245869 -0.0019969707 1 0.84339923 0.40424249 -0.35392889 0
0.037590928 0.10864478 0.00036084047 1 0.80865258 0.49554437 -0.3170439 0
0.01108456 0.12639919 0.029918741 1 0.20473403 0.80452812 0.55751091 0
0.010317294 0.12227032 0.034772784 1 0.196328 0.58308524 0.78833169 0
0.046546951 0.074186422 0.018304979 1 0.96036053 0.16341734 0.22583686 0
0.045732792 0.083441064 0.019670403 1 0.98499155 0.078721404 0.15360561 0
-0.027505949 0.050517112 0.043261703 1 -0.32417896 0.84001905 0.43505901 0
-0.029625911 0.046787865 0.047660831 1 -0.51186049 0.7134434 0.47853678 0
-0.026252516 0.047820047 0.049238123 1 -0.30934355 0.75394303 0.57954866 0
-0.026841853 0.067036569 0.039625112 1 -0.73505777 -0.25343719 0.62885576 0
-0.025435964 0.098727815 0.044226281 1 -0.17620474 0.22462557 0.95838153 0
-0.02472385 0.11213941 0.037601545 1 -0.2426876 0.56343174 0.78971356 0
-0.025685104 0.10428572 0.04223429 1 -0.23377956 0.44639951 0.86375624 0
-0.00030371547 0.11997979 -0.013559485 1 -0.11689239 0.72549057 -0.67823273 0
0.0010117926 0.11685123 -0.01729195 1 -0.059332877 0.63496494 -0.7702592 0
-0.0017092833 0.11608834 -0.017124852 1 -0.11991844 0.63766921 -0.76091886 0
0.0014544558 0.083849311 0.057426047 1 0.098421976 -0.0092969034 0.99510139 0
-0.025657423 0.056713525 0.039114501 1 -0.78865421 -0.04063382 0.61349279 0
-0.02514646 0.062589347 0.04058598 1 -0.81042016 -0.14686719 0.56714129 0
-0.023874003 0.067920454 0.045132212 1 -0.82058102 -0.27427486 0.50141799 0
0.036592949 0.057066634 0.033520456 1 0.73068637 -0.33769748 0.59334451 0
-0.026370842 0.093302824 0.044979796 1 -0.48186535 0.4008688 0.7791726 0
-0.02094695 0.1093469 0.04075022 1 -0.20172498 0.45923552 0.86510682 0
-0.024754237 0.11596309 0.034144085 1 -0.25499895 0.6531924 0.71296239 0
-0.022534098 0.049895834 0.046524391 1 -0.1152344 0.84448284 0.52303898 0
0.049958542 0.070332676 0.023674641 1 -0.052048989 0.77092296 0.63479805 0
0.0088443439 0.12901525 0.026224384 1 0.13284601 0.91710192 0.37586701 0
0.015963836 0.1291126 0.013302982 1 0.37290591 0.92761219 0.021837203 0
-0.024190716 0.095880955 0.044444393 1 -0.35530818 0.32310486 0.87713128 0
-0.02227403 0.046515498 0.051796682 1 -0.005487774 0.61515611 0.78838617 0
-0.022734711 0.051037561 0.043846682 1 -0.29139984 0.82020044 0.49229813 0
-0.024575982 0.05262775 0.040764213 1 -0.68465501 0.32265183 0.65356195 0
-0.02268504 0.10286505 0.043567829 1 -0.1122252 0.34952372 0.93018204 0
-0.025956294 0.042495556 0.053219572 1 -0.28640124 0.39347577 0.87358528 0
-0.02164723 0.044022068 0.053150628 1 0.16981046 0.32205036 0.93136889 0
-0.022149056 0.048079222 0.050041731 1 0.015317149 0.84207577 0.53914171 0
-0.015329643 0.10438373 0.042943195 1 -0.071219057 0.24107221 0.96789056 0
-0.014934016 0.099950455 0.044515379 1 -0.17178968 0.63152397 0.75608575 0
-0.011413869 0.10110022 0.044208866 1 -0.13591516 0.70624119 0.69480252 0
-0.035039123 0.12510622 0.021705352 1 0.2625531 0.84126329 0.47259066 0
-0.02217439 0.098223172 0.044779569 1 -0.15910602 0.34183133 0.92619473 0
0.011419429 0.066600576 0.053925842 1 0.37941733 -0.12080914 0.91730458 0
-0.020705026 0.11412498 0.037917573 1 -0.27976876 0.57766151 0.76683545 0
0.016965434 0.088671602 0.050509118 1 0.54046333 0.1782669 0.82226533 0
0.018241633 0.083648577 0.051261939 1 0.38325429 0.26611045 0.88447797 0
-0.019662255 0.051622331 0.046063162 1 -0.64482862 0.078931294 0.76024067 0
-0.021378301 0.056851435 0.045398843 1 -0.78422457 -0.1180106 0.60915136 0
0.01649978 0.12258263 0.031428024 1 0.30223435 0.70072168 0.64625353 0
0.01398454 0.12328194 0.032557964 1 0.31878543 0.6962145 0.64316505 0
0.016747732 0.11895832 0.035087831 1 0.24746475 0.54693067 0.79976749 0
-0.020033391 0.1021631 0.043721858 1 0.02544426 0.25939921 0.96543497 0
0.051008254 0.057393961 0.029917916 1 0.47963744 -0.084698334 0.8733694 0
0.050617032 0.060397934 0.030167926 1 0.36259371 0.14498392 0.92060065 0
-0.017316138 0.04797421 0.048743453 1 0.15628551 0.73275077 0.66230744 0
0.016876947 0.12702462 0.00028463861 1 0.3883892 0.842228 -0.37390625 0
-0.017874559 0.1050607 0.042829093 1 -0.052783035 0.31351268 0.94811589 0
0.010315701 0.076481119 0.055220567 1 0.29164577 0.033559017 0.95593756 0
0.0083848797 0.08076752 0.055347439 1 0.33050889 -0.0092451517 0.94375765 0
-0.015291101 0.045290593 0.05056072 1 0.27293447 0.50287336 0.82013732 0
-0.017787369 0.049931489 0.046865415 1 -0.18656778 0.27395332 0.94347346 0
-0.01669649 0.051855192 0.048379969 1 -0.54717636 -0.34462774 0.76277757 0
0.0096719507 0.13049971 0.020785119 1 0.17613384 0.96261996 0.20576623 0
-0.022215184 0.083277956 0.05557514 1 -0.5403375 0.033329468 0.84078795 0
-0.020380754 0.079566136 0.055990417 1 -0.41873747 -0.29127109 0.86012799 0
-0.018935978 0.083467796 0.057200793 1 -0.29633012 0.027429892 0.95469159 0
-0.0071120588 0.073917441 0.057934359 1 -0.25181526 -0.083101779 0.96420074 0
0.015952781 0.09323068 0.049934328 1 0.52749288 0.33605367 0.78026867 0
-0.016487034 0.087261669 0.056731731 1 -0.12577504 0.17596255 0.97632873 0
-0.019826839 0.088027835 0.055581976 1 -0.42366111 0.32610062 0.84508556 0
-0.018683748 0.09899088 0.044503313 1 -0.12277269 0.49536881 0.85996324 0
-0.016516909 0.11571823 0.037899788 1 -0.27117923 0.55863124 0.78383225 0
0.029853057 0.071681574 -0.021332355 1 0.69207084 -0.13755317 -0.70860213 0
0.026510585 0.070418701 -0.023931112 1 0.65044874 -0.17962945 -0.73800397 0
0.025658283 0.07427372 -0.024983328 1 0.58020747 0.011009623 -0.81439424 0
0.0063498225 0.08341442 0.056441106 1 0.27285361 -0.084259912 0.95835859 0
-0.017593246 0.077481657 0.056058694 1 -0.26440004 -0.25455302 0.9302125 0
-0.016793994 0.082549319 0.057505511 1 0.062334154 -0.075537242 0.99519271 0
-0.016035175 0.054299865 0.050232641 1 -0.43772441 -0.31086564 0.84365863 0
-0.018128395 0.057498217 0.049695414 1 -0.70339328 -0.19621229 0.6831826 0
-0.017215237 0.069659323 0.054046188 1 -0.49933821 -0.28225538 0.81914175 0
-0.01503738 0.070909791 0.054963175 1 -0.12202476 -0.24763532 0.96113825 0
-0.015047342 0.09181942 0.055816397 1 -0.25658801 0.41528827 0.87275326 0
-0.019127674 0.092123367 0.053821892 1 -0.4099234 0.51367676 0.75372338 0
0.014072344 0.1279825 0.025174195 1 0.31571802 0.88149321 0.3511295 0
-0.014998767 0.10810101 0.042381454 1 -0.17173649 0.35319147 0.91965342 0
-0.013818061 0.11966285 0.036305968 1 -0.2446723 0.64594233 0.72311407 0
-0.013156548 0.047906294 0.047796402 1 0.024913874 0.15334776 0.98785812 0
-0.015506347 0.060827177 0.0523034 1 -0.53311396 -0.23831557 0.8117851 0
-0.014142045 0.054436412 0.050635498 1 -0.32223853 -0.35135111 0.87904197 0
-0.014538556 0.065585732 0.053678568 1 -0.27875459 -0.13946234 0.95018214 0
-0.014355654 0.076579116 0.056462202 1 -0.18835516 -0.18715797 0.9641028 0
-0.015047244 0.082936443 0.056916889 1 -0.084235936 -0.053690206 0.99499834 0
-0.013431299 0.08978463 0.05666903 1 -0.05284724 0.18334454 0.98162723 0
-0.01420229 0.094589807 0.053998664 1 -0.24885911 0.67411703 0.69543892 0
0.013390251 0.12966569 0.019757653 1 0.34522468 0.92766863 0.14230508 0
-0.012776902 0.11596846 0.038966462 1 -0.18656757 0.48032904 0.85701615 0
-0.012223283 0.12269005 0.033647578 1 -0.22899608 0.77513033 0.58884096 0
0.048956499 0.045403961 0.002195681 1 0.54155648 -0.7291922 -0.41832447 0
0.043533944 0.071820877 -0.0022830605 1 0.92314798 -0.13335419 -0.36057532 0
-0.013570323 0.070888609 0.054653808 1 -0.16919661 -0.24971224 0.95342338 0
-0.012208471 0.085219033 0.057253763 1 -0.071111135 0.087094545 0.99365878 0
-0.011976672 0.049481787 0.049399253 1 -0.26599827 -0.5098778 0.81808901 0
-0.011661424 0.073182479 0.056211911 1 -0.30977747 -0.26623616 0.91277391 0
-0.011178195 0.079873033 0.057673998 1 -0.13149919 -0.031428896 0.99081796 0
-0.012636092 0.10459474 0.043490022 1 -0.11036523 0.16041631 0.98085988 0
-0.011428541 0.10986253 0.042509139 1 -0.16535714 0.37031007 0.91407192 0
0.024944272 0.1108688 0.036756083 1 0.36590892 0.46565446 0.80577695 0
-0.010233421 0.053694457 0.051882178 1 -0.23605724 -0.35861629 0.90314525 0
-0.0100771 0.068927862 0.055243175 1 -0.27588555 -0.19566388 0.94106472 0
-0.009741731 0.076340191 0.057356715 1 -0.19057654 -0.086223915 0.97787833 0
-0.011020567 0.092365876 0.056104582 1 -0.078823611 0.39432958 0.91558236 0
-0.010677711 0.088825807 0.05665753 1 -0.044564672 0.15062681 0.98758566 0
0.044873919 0.092825256 0.0022350554 1 0.96178168 0.18115023 -0.20533016 0
-0.0074469214 0.103071 0.043730874 1 -0.027383883 0.10920037 0.99364245 0
-0.011179242 0.064743906 0.05486317 1 -0.25158408 -0.0353356 0.96719015 0
-0.0082996897 0.083987743 0.057587471 1 -0.0078652659 0.10427283 0.99451762 0
-0.0073481854 0.1002317 0.047503259 1 -0.11159433 0.89905471 0.42337605 0
-0.015673665 0.09703052 0.050148793 1 -0.27521315 0.83899808 0.46940377 0
-0.0060691591 0.10124278 0.044337966 1 -0.029326355 0.81640261 0.57673806 0
0.01526482 0.045794711 0.043695964 1 0.35448757 -0.05818446 0.93324876 0
0.014962884 0.042753719 0.044406034 1 0.1881078 0.030716015 0.98166794 0
0.011132114 0.08604189 0.054715231 1 0.45921674 -0.04287982 0.88728881 0
0.030354287 0.1005422 0.039411541 1 0.57455671 0.42393276 0.70011818 0
0.026295975 0.10093841 0.041741222 1 0.47928053 0.47472355 0.73819232 0
0.029002976 0.096762173 0.042257395 1 0.50092226 0.34655204 0.79308164 0
0.010616889 0.059180632 0.052413389 1 0.39920095 -0.22386903 0.88911265 0
0.010200571 0.06275066 0.053945523 1 0.44285303 -0.22149795 0.86880362 0
-0.015081994 0.035254944 0.050021894 1 0.10704067 -0.88420552 0.45466796 0
-0.0092542525 0.035991322 0.049322058 1 0.25746635 -0.45857331 0.85054189 0
-0.017504457 0.036293853 0.052112479 1 0.24711418 -0.51131403 0.82309943 0
0.024599545 0.098058403 0.044689924 1 0.5224303 0.41338989 0.74577165 0
0.023969095 0.09526132 0.046344556 1 0.44271395 0.25275689 0.86030132 0
0.054917648 0.064790383 0.026910629 1 0.5371927 0.33678946 0.7733025 0
0.05414854 0.061482925 0.028193282 1 0.56274235 0.070302591 0.82363737 0
0.017380305 0.073089451 0.051782314 1 0.44562912 -0.20599483 0.87119502 0
0.018312234 0.0758297 0.052448511 1 0.47754857 -0.16201298 0.86353874 0
0.014275445 0.076668762 0.054184057 1 0.33302122 -0.09989541 0.93761283 0
0.054657929 0.058434781 0.027571158 1 0.69691747 -0.17557164 0.6953277 0
0.040110689 0.064437069 0.031620204 1 0.8646605 -0.10992577 0.49018201 0
0.037724797 0.06113242 0.034293223 1 0.805547 -0.24136937 0.54114211 0
0.043947831 0.088538103 -0.0035912024 1 0.9480319 0.081532493 -0.30755162 0
-0.039274022 0.037561979 0.042768762 1 -0.30287206 0.09219417 0.94856143 0
-0.043101694 0.036291409 0.043938104 1 0.3003982 -0.083681673 0.95013595 0
0.057023756 0.063789338 0.025214188 1 0.76322925 0.11256775 0.63624638 0
0.052032702 0.053366773 0.027835751 1 0.63964903 -0.39184481 0.66129172 0
0.014269425 0.052552018 0.048509512 1 0.45571965 -0.47618639 0.75204134 0
0.019634902 0.051360268 0.044710971 1 0.44753924 -0.59490883 0.66767657 0
0.019417539 0.055199981 0.047641594 1 0.44663575 -0.34219751 0.82669061 0
0.026839461 0.047770847 -0.01652481 1 0.6521014 -0.65169084 -0.38737971 0
0.024772611 0.04428098 -0.010924224 1 0.64692682 -0.70531642 -0.28985223 0
0.022243571 0.045154832 -0.017629955 1 0.6412062 -0.62024891 -0.45182508 0
0.02721478 0.061521072 -0.0223618 1 0.6981287 -0.084579833 -0.71095896 0
0.031134501 0.060687635 -0.0182053 1 0.69687569 -0.23519482 -0.67753071 0
0.030859493 0.057465464 -0.016596589 1 0.75533372 -0.29132059 -0.58702934 0
0.014731096 0.061407503 0.050433867 1 0.478661 -0.16504781 0.86234725 0
0.016775154 0.066295378 0.050952055 1 0.49023786 -0.20481326 0.84718251 0
0.013128597 0.064224511 0.05237978 1 0.51318634 -0.24754915 0.82180244 0
0.015117001 0.056376576 0.049445868 1 0.43284208 -0.21422987 0.87564445 0
0.011956904 0.056698803 0.051838204 1 0.46122909 -0.22084017 0.85935873 0
-0.023350548 0.03703386 0.05403823 1 0.17016597 -0.21740508 0.96113408 0
-0.026716769 0.036179721 0.053244289 1 -0.19474545 -0.56966919 0.79846799 0
-0.022709925 0.035632506 0.052755326 1 0.048938584 -0.9071517 0.4179486 0
0.03369467 0.10981105 -0.0069650151 1 0.74301535 0.5126611 -0.43024045 0
0.038127854 0.10503034 -0.0031894094 1 0.79901421 0.48906928 -0.34983915 0
0.036868494 0.1038799 -0.0079504084 1 0.81131661 0.41221851 -0.41453728 0
0.020326845 0.11855712 0.034315255 1 0.3468776 0.51547444 0.78355736 0
0.034312081 0.09711545 0.037588909 1 0.67875987 0.3704946 0.63404948 0
0.029431079 0.10657944 0.03660864 1 0.55123925 0.39442533 0.73523051 0
0.028916605 0.10365859 0.038047999 1 0.4963015 0.45213598 0.74111933 0
0.017985564 0.058273651 0.048790973 1 0.34498599 -0.090590745 0.93422586 0
0.056165159 0.053248405 0.023105595 1 0.762128 -0.41457504 0.49728125 0
0.05191426 0.04895433 0.024048069 1 0.60653973 -0.61461353 0.50434095 0
0.045068257 0.075612336 0.023109127 1 0.93349588 -0.0052693137 0.35854948 0
0.045350555 0.044716321 0.025410168 1 0.48013416 -0.74751163 0.45901817 0
0.049228452 0.044676922 0.020551223 1 0.51915836 -0.80712754 0.28110471 0
0.057882369 0.061493497 0.02412547 1 0.83872902 -0.109318 0.53346336 0
0.056878053 0.057070978 0.024206974 1 0.78523153 -0.26698595 0.55868584 0
0.038306721 0.065745868 0.03506919 1 0.81553477 -0.11244339 0.56767911 0
0.036175933 0.066732451 0.037719611 1 0.71885628 -0.014282199 0.69501209 0
0.035548467 0.06169242 0.037534814 1 0.73091227 -0.18965961 0.65558857 0
0.038973019 0.095028073 0.032513756 1 0.82170737 0.22943287 0.52168733 0
0.039473664 0.10134343 0.027557086 1 0.82833636 0.32836276 0.45391253 0
0.03694202 0.099266708 0.032840565 1 0.75647569 0.35056648 0.55213004 0
0.05944223 0.056493878 0.0093662413 1 0.92713439 -0.33531433 -0.1672904 0
0.056612954 0.067760326 0.023905104 1 0.65468365 0.40219802 0.64002031 0
0.038643856 0.075717308 0.035006769 1 0.82059461 -0.024133405 0.57100087 0
0.037170731 0.079939462 0.037162419 1 0.74033135 -0.035174794 0.67132127 0
0.035672482 0.073137321 0.038433347 1 0.71080488 -0.057721861 0.70101684 0
0.028975394 0.082597464 0.044498485 1 0.63917887 0.084748581 0.76437426 0
0.028616425 0.088056393 0.044216324 1 0.64381737 0.044038605 0.76391077 0
0.026066128 0.088520363 0.046638802 1 0.54585552 0.12329039 0.8287589 0
0.054736815 0.068895534 0.024456756 1 0.33925182 0.61731738 0.70980805 0
0.023393515 0.058693141 0.045796599 1 0.58431792 -0.24400663 0.77397245 0
0.024879307 0.063735239 0.045140211 1 0.54991847 -0.0001034817 0.83521831 0
0.022110634 0.060911428 0.047212258 1 0.55133665 -0.0061512724 0.83426011 0
0.036337364 0.084501088 0.037910599 1 0.77373576 -0.022097409 0.63312298 0
0.03860518 0.087558143 0.03516512 1 0.83818609 0.047871765 0.54327917 0
0.034597721 0.086988047 0.040552892 1 0.77449894 -0.020198323 0.63225275 0
0.01809714 0.07953915 0.052727871 1 0.40771523 0.12870714 0.90399265 0
0.012728268 0.089612164 0.053383913 1 0.49519074 0.18581212 0.84868133 0
0.020334456 0.06388364 0.04785651 1 0.53476113 -0.119746 0.83647555 0
0.048286587 0.049058016 0.028066082 1 0.54808861 -0.57007289 0.61205858 0
0.042404447 0.078943513 0.02914829 1 0.87390429 -0.015135787 0.48586226 0
0.040100846 0.07036937 0.032664903 1 0.84036428 -0.034347717 0.54093266 0
0.027209405 0.051372804 0.038662318 1 0.48410779 -0.36080307 0.79715794 0
0.03149692 0.052924816 0.036826424 1 0.62714517 -0.38610959 0.67646766 0
0.029162668 0.056178283 0.04030836 1 0.5387125 -0.36149272 0.76099408 0
0.019706644 0.040851872 0.042532235 1 0.42657885 -0.13310099 0.89460301 0
0.021909725 0.040209834 0.040735483 1 0.68572968 -0.40067667 0.60764545 0
0.022841666 0.043670733 0.040801097 1 0.63467526 -0.090828344 0.76742268 0
0.026036952 0.046382718 0.038177736 1 0.5455513 -0.12433634 0.82880294 0
0.019144773 0.044292308 0.042908143 1 0.40689006 0.09147656 0.9088853 0
0.021848053 0.048174873 0.040599197 1 0.47238031 -0.10990472 0.87451577 0
0.02748451 0.044607952 0.036049914 1 0.72503757 -0.40449589 0.55740786 0
0.024763577 0.048538726 -0.019767845 1 0.49143535 -0.60323822 -0.62816793 0
0.024497118 0.055003881 0.043005075 1 0.56942475 -0.43017724 0.70050204 0
0.019746479 0.060035583 0.048505057 1 0.44408879 -0.10659067 0.88961995 0
0.016958185 0.048478995 0.043585882 1 0.46398172 -0.49451441 0.73496705 0
0.023643963 0.11662626 0.033576712 1 0.42207396 0.51954365 0.74291849 0
0.056500293 0.067912921 0.0025893857 1 0.52729315 0.44763264 -0.72220969 0
-0.052582055 0.041315667 0.046078108 1 0.37141508 0.25962833 0.89142805 0
-0.050743174 0.038308486 0.046187777 1 0.29493782 0.22417712 0.92884672 0
-0.044987977 0.038842984 0.044405557 1 0.28665367 0.21191739 0.93430227 0
0.01880791 0.035437573 -0.0087973364 1 0.61423081 -0.76805413 -0.18114471 0
0.024304874 0.084527776 0.048268329 1 0.54165542 0.12532873 0.83120531 0
0.02547092 0.078760378 0.047991704 1 0.62429833 -0.020838475 0.78090799 0
0.013455549 0.038489122 0.044388965 1 0.22262819 -0.067648023 0.97255361 0
0.022098124 0.053967547 0.045018569 1 0.60133582 -0.43223971 0.67198539 0
-0.049356215 0.036095295 0.045852102 1 0.29350549 -0.1748413 0.93983257 0
0.014623608 0.080104075 0.053725753 1 0.2711753 0.20678367 0.94005561 0
0.029026631 0.043421388 0.032052226 1 0.67342645 -0.5707733 0.46980289 0
0.033224128 0.10773492 0.031936072 1 0.70806879 0.40171492 0.58074403 0
0.029240631 0.11156221 0.033834498 1 0.57752705 0.49145916 0.65186679 0
0.036495194 0.071284518 0.037062511 1 0.74943125 -0.032501806 0.66128385 0
0.033567324 0.067112029 0.039668936 1 0.57440889 -0.038996398 0.81763911 0
0.021196917 0.069366924 0.04895113 1 0.54014003 -0.22240317 0.81165606 0
0.02288929 0.07518062 0.049270216 1 0.5980345 -0.17263477 0.78265697 0
0.02359058 0.070112444 0.046961065 1 0.69306666 -0.25496602 0.67427814 0
0.043021794 0.085641176 0.027848355 1 0.89592856 0.072136723 0.43830153 0
0.021939918 0.080280125 0.050393477 1 0.50713909 0.076181725 0.85849077 0
0.030258626 0.062220808 0.041477028 1 0.54922843 -0.13659102 0.8244338 0
0.02956786 0.06655962 0.042228736 1 0.5277679 0.010201789 0.84932727 0
0.033179153 0.073556185 0.040439729 1 0.61967599 -0.112007 0.7768243 0
0.029944461 0.070697352 0.041601807 1 0.51284492 -0.099052437 0.85274774 0
0.037536532 0.040348437 -0.00097277161 1 0.34142321 -0.78545237 -0.51623154 0
0.043987736 0.044674654 -0.0013686678 1 0.42645356 -0.68476892 -0.59095603 0
0.043502059 0.04200086 0.0019511757 1 0.47172147 -0.79165065 -0.38828859 0
0.032601003 0.093789458 0.040882736 1 0.61116153 0.30499017 0.7303853 0
0.039283212 0.10840357 0.013162017 1 0.87252533 0.48589239 0.051069349 0
0.033247184 0.061830331 0.039710596 1 0.55763471 -0.16665256 0.81318539 0
0.013385942 0.084229663 0.053044159 1 0.40853733 0.1116314 0.90588945 0
0.029182456 0.07413438 0.043401752 1 0.55923951 -0.27546883 0.78190023 0
0.029017869 0.092178404 0.043910358 1 0.53095496 0.19153571 0.82547015 0
0.031082995 0.079047464 0.043353017 1 0.65572673 -0.069023363 0.75183654 0
0.026104394 0.075575441 0.046375278 1 0.64603758 -0.2546694 0.71956855 0
0.033782426 0.058574632 0.038234062 1 0.64803535 -0.35989377 0.67121285 0
0.032947853 0.089020677 0.042198267 1 0.58486944 0.10546355 0.80424201 0
0.030639526 0.085008055 0.042986862 1 0.53277117 0.052012287 0.84465945 0
0.024038203 0.10621788 0.03939712 1 0.40235975 0.43945101 0.80311239 0
0.027223129 0.059998367 0.043381322 1 0.57903796 -0.14540023 0.8022306 0
0.026313145 0.068051994 0.043846399 1 0.54415452 0.030236533 0.83843994 0
0.025861863 0.070592858 0.044488505 1 0.62295961 -0.18059514 0.76112205 0
-0.0015134104 0.039499354 0.047156263 1 0.26063699 0.02930643 0.96499193 0
0.023890354 0.051522501 0.040964346 1 0.52984595 -0.51324981 0.67515767 0
0.025661848 0.054203894 -0.021774881 1 0.68445802 -0.21568862 -0.6964162 0
0.029260572 0.055379126 -0.018124351 1 0.76813889 -0.10772449 -0.63115615 0
0.026973974 0.05159422 -0.020323312 1 0.68026555 -0.34573174 -0.64630359 0
0.041253883 0.090541452 0.029873407 1 0.8722074 0.13898191 0.46897575 0
0.023967072 0.034793004 0.0038672802 1 0.15714651 -0.97033095 -0.1837469 0
0.029300239 0.03592582 0.0034423363 1 0.23997073 -0.92519343 -0.29399198 0
0.035442095 0.090895392 0.039170403 1 0.77216643 0.21170382 0.59911633 0
0.058383077 0.0529394 0.01508848 1 0.90379035 -0.42746073 0.020985076 0
0.060001373 0.056963731 0.013257052 1 0.96284676 -0.26912767 0.02228255 0
0.033225212 0.083834335 0.04160998 1 0.62553287 -0.03285487 0.77950573 0
-0.033317603 0.036344443 0.048984066 1 -0.62430269 -0.40363273 0.66882479 0
-0.034924887 0.038588863 0.047631841 1 -0.7531724 0.066843353 0.65441817 0
-0.036676966 0.035932772 0.044687983 1 -0.68070298 -0.33548826 0.65122265 0
0.042355727 0.069802187 0.02826128 1 0.87805396 -0.020975821 0.47810176 0
0.0050901771 0.037990697 0.045756828 1 0.1816645 -0.001900365 0.9833588 0
0.048706375 0.071929067 0.0059470278 1 0.33386126 0.81764501 -0.46903443 0
0.03981901 0.045019142 0.029886993 1 0.20772214 -0.65503532 0.72648489 0
-0.022320598 0.040613726 0.053886063 1 0.18685007 0.093895592 0.97789091 0
-0.025424009 0.038855884 0.05405828 1 -0.1423815 0.039150026 0.98903728 0
0.04251061 0.045518287 0.028936381 1 0.41262761 -0.71958303 0.55851483 0
0.019843999 0.038385559 -0.012621761 1 0.82437867 -0.52223235 -0.21834165 0
0.022183802 0.043012314 -0.014641161 1 0.81188154 -0.51916647 -0.26704785 0
0.021904394 0.040574282 -0.0095728952 1 0.76267999 -0.58094227 -0.28429797 0
0.012011586 0.070936874 0.05419226 1 0.41889578 -0.10109717 0.90238887 0
0.059296571 0.058066495 0.020186396 1 0.91807646 -0.18867485 0.34862208 0
0.05672805 0.051288687 0.019844603 1 0.78508538 -0.54356217 0.29695329 0
0.059031397 0.055616416 0.018559622 1 0.92959416 -0.30981892 0.19966707 0
0.057374269 0.071239948 0.0079737622 1 0.61896175 0.73001027 -0.28977826 0
0.056649923 0.070088923 0.0048596463 1 0.44853947 0.72343433 -0.52483809 0
0.053928308 0.072160251 0.0067463331 1 0.17511025 0.89069915 -0.41951331 0
0.056733117 0.050243542 0.015465531 1 0.76226938 -0.64644736 0.032423727 0
0.058570936 0.071308829 0.013015643 1 0.73681915 0.67249227 -0.069655016 0
0.06008476 0.068631224 0.016109038 1 0.90597463 0.39121246 0.16174926 0
-0.017395791 0.038914401 0.05229862 1 0.31236866 -0.022454865 0.94969553 0
0.031498343 0.075956509 0.042656835 1 0.56243646 -0.20963563 0.79982394 0
0.025183067 0.042789638 -0.0071232468 1 0.57867783 -0.63880527 -0.50701058 0
-0.028645132 0.03546267 0.017241234 1 0.72566706 -0.65304154 0.21666609 0
-0.034614533 0.034750126 0.034469176 1 0.64979547 -0.74044085 0.17179467 0
-0.02958595 0.034354448 0.016242255 1 0.65323341 -0.73132288 0.19609471 0
0.0219182 0.12125245 0.030928209 1 0.45901397 0.70929444 0.53498358 0
0.019239437 0.12151312 0.032018315 1 0.23338674 0.71402407 0.66007602 0
0.01546737 0.071593098 0.05266979 1 0.4093931 -0.14737098 0.90037721 0
0.044641946 0.081939451 0.024519695 1 0.94332576 0.038656514 0.32960892 0
0.041010592 0.095252745 0.028651746 1 0.87733948 0.23891132 0.41616905 0
0.045359008 0.071126938 0.022476219 1 0.85901266 0.2254227 0.45965397 0
-0.011216977 0.037651554 0.050167765 1 0.32049784 -0.031968553 0.94670969 0
0.038547214 0.038962737 0.002977282 1 0.38136911 -0.89112413 -0.24587709 0
-0.007156305 0.039003838 0.04882253 1 0.2889525 -0.011606267 0.95727301 0
0.040908232 0.078631282 -0.0082520694 1 0.81653452 -0.052060924 -0.57494426 0
0.041659858 0.085666455 -0.0091833696 1 0.90441376 -0.054519609 -0.42315882 0
-0.046475586 0.054586992 0.037519898 1 -0.54003656 -0.071887188 0.83856595 0
-0.017654292 0.038270228 0.020137349 1 0.026418664 -0.99935305 0.024400529 0
-0.025582423 0.037927475 0.019876422 1 0.042910982 -0.99765605 0.053302269 0
0.05605635 0.063056603 0.00061690737 1 0.6278587 0.21345808 -0.74848449 0
0.024447247 0.056634378 -0.024333827 1 0.69980955 -0.24071029 -0.67255127 0
0.035263486 0.041056756 0.026858181 1 0.24733247 -0.78157359 0.57268631 0
0.029164415 0.039238889 0.027120944 1 0.34734502 -0.7521134 0.56006861 0
